# .PCD v0.7 - Point Cloud Data file format
VERSION 0.7
FIELDS x y z
SIZE 4 4 4
TYPE F F F
COUNT 1 1 1
WIDTH 1447
HEIGHT 1
VIEWPOINT 0 0 0 1 0 0 0
POINTS 1447
DATA ascii
-0.82646841 0.84138393 0.095659181
-0.086157247 0.84138745 0.097520649
-1.5173104 0.88070655 0.095008552
-1.7432559 0.89715904 0.098273814
-1.3684556 0.89546955 0.091013491
-1.256717 0.89225566 0.09844926
-0.67208809 0.894584 0.098381303
-1.6356604 0.91356826 0.091237523
-1.6191318 0.91165853 0.098568037
-1.3862271 0.91157085 0.098431349
-1.1533277 0.91157097 0.098431617
-0.92042452 0.91148281 0.098294035
-0.68752831 0.91148198 0.098292604
-0.53828353 0.91461217 0.095430583
-0.45462963 0.91148186 0.098292425
-0.37152359 0.91495335 0.095621631
-0.22173177 0.9114815 0.098291829
0.011165917 0.91148221 0.098293051
-0.93127906 0.92644435 0.098136745
-1.2404139 0.93497676 0.094106674
-0.49205258 0.93152165 0.092038631
-0.41825393 0.93181837 0.091468453
-0.63328516 0.94093227 0.097342253
-0.27599815 0.94077182 0.097383559
-1.8811846 0.96710682 0.096844226
-0.89626288 0.96820551 0.09519577
-1.9139545 0.97807956 0.092295408
-1.115134 0.99994266 0.097312987
-0.76109493 0.99227518 0.097417906
-0.9676981 1.0262264 0.094855189
-0.48679635 1.0224891 0.096674263
-0.42242068 1.0225663 0.096832186
-1.7781961 1.0340246 0.096731037
-1.5298321 0.86801207 0.10116054
-1.4915798 0.86685115 0.1065398
-1.1038507 0.87936902 0.10988167
-0.54017466 0.87985551 0.10495409
-0.36908627 0.87985671 0.10495403
-0.93963969 0.88020766 0.10005814
-1.8855984 0.89027154 0.10274982
-1.3961574 0.89711201 0.1093635
-1.0786209 0.90748602 0.10494005
-1.0056264 0.91722512 0.10483307
-1.3785815 0.9413386 0.10296904
-0.058628704 0.94984472 0.10901079
-1.8810201 0.96929324 0.10513157
-0.49481392 0.96675694 0.10020941
-0.41444498 0.96675742 0.10020804
-0.17693251 0.96191394 0.10262829
-2.0023422 0.99906194 0.10192756
-1.728798 0.99647093 0.10852596
-1.5209363 0.99890339 0.10518146
-1.9279884 1.0016074 0.10341936
-1.05682 1.0144901 0.10668224
-1.3825029 1.0211411 0.10673077
-0.6204834 0.84138441 0.11444122
-0.28870127 0.84106666 0.11819488
-1.8579675 0.86558962 0.11773133
-0.54687464 0.86790323 0.11640604
-0.36238509 0.86790371 0.11640634
-1.6606739 0.87902665 0.11465895
-1.5024403 0.89497089 0.11041403
-1.098968 0.89578688 0.11945125
-1.0132951 0.89635253 0.11729226
-1.6918899 0.91547644 0.11985135
-0.94678271 0.91121459 0.1115246
-1.3900803 0.92799515 0.1120147
-1.1631799 0.9408713 0.1179409
-0.84212822 0.9415651 0.11970708
-1.8983561 0.96988958 0.11407143
-1.6577349 0.96989053 0.11407202
-1.4171143 0.96988922 0.11407125
-1.176493 0.96989018 0.11407179
-0.93587089 0.9698897 0.11407155
-0.69525146 0.96989173 0.11407274
-0.45463091 0.96989042 0.11407197
-0.85273182 0.99527186 0.11468536
-0.05652637 0.99527138 0.11468625
-0.53907323 1.0099156 0.11820205
-0.51967144 1.0062628 0.11794633
-0.38944176 1.006067 0.11816723
-0.90919989 1.0166657 0.11712469
-0.3700369 1.0101181 0.11844914
-9.7548589e-05 1.016593 0.11726402
-1.7420067 1.0339369 0.11336624
-1.1644813 0.841869 0.12744552
-1.3349922 0.868837 0.12661201
-1.5639511 0.89542633 0.12292117
-0.68852651 0.89650095 0.12857743
-0.58546358 0.89310062 0.12923703
-0.32402644 0.89334381 0.12927786
-0.22073284 0.89650166 0.12857853
-1.2166046 0.93190771 0.12108801
-0.62373763 0.93019319 0.12628263
-0.28518873 0.9302876 0.12621921
0.0046348218 0.95465696 0.12587599
-0.12848642 0.97367609 0.12007272
-1.5165191 0.99529189 0.12437858
-1.479763 1.0006678 0.12717542
-0.64909089 1.0189661 0.12210101
-0.46955189 1.0149927 0.12303156
-0.44025633 1.0146573 0.12322378
-0.26051748 1.0191835 0.12181538
-1.7420245 1.0341388 0.12067869
-0.54501975 1.0309544 0.12254171
-0.36513078 1.0307109 0.12205778
-1.1520531 0.84107065 0.13884026
-0.56386214 0.86724758 0.13358101
-0.34539717 0.86724716 0.13358065
-1.8040853 0.89627117 0.13205485
-0.63852298 0.89734453 0.13793612
-0.61094964 0.89986426 0.13612148
-0.27083629 0.8972283 0.13786575
-1.1465131 0.91687435 0.13031982
-1.126601 0.91512382 0.13153931
-0.60651517 0.94162816 0.13648421
-0.30274364 0.94162804 0.13648432
-1.8544346 0.95091951 0.13530907
-1.3470154 0.96574229 0.13197604
-1.7433507 0.99004859 0.13427846
-0.96938831 1.0170778 0.13667831
-1.2064413 1.0315926 0.13597928
-0.58379036 1.0300989 0.13547537
-0.32530373 1.0300534 0.13544312
-1.7114773 0.84203291 0.14438701
-2.0225859 0.89887249 0.14391026
-1.0637641 0.89820349 0.14745992
-1.8057371 0.91265637 0.14491343
-1.5202898 0.91831422 0.14674884
-1.7618941 0.92094767 0.14226188
-1.5675521 0.92741108 0.1450105
-0.50085169 0.92314744 0.1450153
-0.40819782 0.92275774 0.14579608
-0.52556586 0.93489915 0.14502311
-0.38319188 0.93500555 0.14452711
-1.5541503 0.96651185 0.1479564
-1.0934248 0.96754891 0.14816494
-1.5468652 0.99610913 0.14591141
-1.4250681 0.99175966 0.14381455
-1.3528429 0.99982333 0.14680734
-0.49041468 0.99381971 0.1448234
-0.41896245 0.99394155 0.14485212
-1.6015468 1.0184793 0.14806074
-0.53283751 1.016122 0.14765784
-0.37614506 1.0162917 0.14777374
-0.875296 1.0266359 0.14835638
-1.6807244 0.84107149 0.15937513
-1.6126646 0.87206405 0.15470481
-1.3218315 0.87165159 0.15851498
-1.1180427 0.87855089 0.15475121
-0.55993152 0.87794292 0.15884155
-0.34922126 0.87821734 0.15900192
-2.0544095 0.89898372 0.15839404
-1.7107283 0.89611739 0.15749282
-1.4967638 0.89919633 0.15722503
-0.64266288 0.90646458 0.15422265
-0.26637983 0.90616775 0.1538925
-1.0554606 0.91314846 0.1574595
-1.0348345 0.91677427 0.15709764
-1.0066947 0.93503165 0.15971772
-1.6766152 0.94127649 0.15258712
-1.1488351 0.94169277 0.15335351
-0.29974872 0.95560539 0.15471378
-0.61549306 0.96739954 0.15837163
-1.8088561 0.97190505 0.1551854
-1.5171902 0.97156709 0.15899026
-0.023345262 0.9734273 0.15257204
-1.4994235 0.9964695 0.15641847
-1.2853863 0.99890471 0.15436327
-1.039559 0.9998644 0.15058222
-1.6548389 1.0149715 0.15114233
-1.2108841 1.0112914 0.1514779
-1.1158049 1.0167015 0.15837294
-1.1294953 1.0307918 0.15185189
-1.7123423 0.83975697 0.16140372
-1.4575522 0.83964628 0.16325712
-1.2040105 0.83937061 0.16510814
-0.9518187 0.83926094 0.16694427
-0.70091075 0.83915275 0.16877043
-1.2840018 0.86621451 0.16500604
-1.4456465 0.87715507 0.16711593
-1.0340182 0.87124538 0.1622833
-0.90071177 0.87761545 0.16304326
-0.74917579 0.87084198 0.16601425
-0.46716839 0.87029535 0.16971004
-0.44191092 0.87058675 0.16970158
-0.0084970295 0.8774786 0.16296354
-1.580584 0.89096278 0.16567072
-0.78366578 0.89635187 0.16523564
-0.12556522 0.89646876 0.16535324
-0.56280649 0.91527736 0.16716403
-0.34630513 0.91536647 0.16715688
-1.9397099 0.93972409 0.16163856
-1.6844195 0.93963277 0.16349119
-1.4304349 0.93954051 0.16533577
-1.1777458 0.93944883 0.16717201
-0.92634177 0.93935871 0.16899753
-1.2599909 0.96846437 0.16913855
0.027726695 0.96241438 0.16284192
-1.2285516 0.97122955 0.16275364
-0.9428885 0.9709 0.16647923
-0.18274024 0.97671282 0.16645443
-1.0801494 0.99538434 0.16204894
-0.46944231 0.99291986 0.16177672
-0.44005015 0.99316156 0.16173571
-1.1853735 1.0050037 0.16636118
-0.64362454 1.0148839 0.16839772
-0.26578403 1.0149722 0.16840225
-0.074743807 1.0153371 0.16833618
-1.7010772 1.0216402 0.16772646
-0.65648007 1.0227176 0.16257951
-1.8811836 0.80006737 0.17154348
-1.6434256 0.80006653 0.17154348
-1.4056656 0.80006695 0.17154348
-1.1679065 0.80006772 0.17154348
-0.93014741 0.80006868 0.17154348
-0.69238853 0.80006737 0.17154348
-0.45463043 0.80006665 0.17154348
-1.6873448 0.83867043 0.17953354
-1.4439777 0.83861375 0.17776448
-1.199342 0.83871996 0.17598468
-0.95347041 0.83882797 0.17419392
-0.70635414 0.83893573 0.17239487
-0.45462972 0.83904368 0.170587
-0.2029046 0.83893359 0.17239612
-1.6964755 0.8413831 0.17864424
-1.1418383 0.86709946 0.17920306
-0.9971475 0.86980021 0.17697191
-0.18813559 0.86990136 0.17336363
-0.72094738 0.87019211 0.17335504
-1.569151 0.89154327 0.1743367
-1.3975987 0.89624381 0.17799672
-0.69238853 0.89994705 0.17154348
-0.56553769 0.89383668 0.17612088
-0.45463043 0.89994776 0.17154348
-0.34372103 0.89383614 0.17612058
-0.21687052 0.89994746 0.17154348
0.020888567 0.89994657 0.17154348
-1.6434187 0.90011805 0.17154771
-1.419372 0.90873456 0.17500311
-1.4056594 0.90011716 0.17154771
-1.167904 0.90011859 0.17154771
-0.93014497 0.90011775 0.17154771
-0.80560178 0.91382229 0.17695087
-0.6026814 0.91681015 0.17294896
-0.30630043 0.91663647 0.17306483
-0.10380152 0.91391087 0.17694765
-1.6978104 0.9224571 0.17700961
-1.611377 0.92809868 0.17514388
-1.1961565 0.92765373 0.17602286
-1.1453774 0.92837954 0.17436165
-0.82527542 0.92728817 0.17179218
-0.085125685 0.927616 0.17235297
-1.8340423 0.93002629 0.17954929
-1.4648833 0.93882108 0.17975801
-1.2209909 0.93890905 0.17798811
-1.1858566 0.93173349 0.17609876
-0.97587055 0.93899882 0.17620587
-0.72951221 0.93908781 0.17441696
-0.67621386 0.93926829 0.17081434
-0.48190704 0.93917763 0.17261976
-0.42735204 0.93917829 0.17261994
-0.23309654 0.93943053 0.1708163
-1.6941113 0.94175613 0.17031288
-1.1387278 0.94105488 0.17324431
-0.80585188 0.96978021 0.17742324
-0.7657795 0.96636748 0.17958392
-0.14340669 0.96651185 0.17954889
-0.66015989 0.97057062 0.17016518
-0.52885228 0.97010189 0.1738109
-0.38031822 0.97024572 0.17381561
-0.2490083 0.97042584 0.17016196
-0.60737371 0.9989574 0.1734879
-0.30198875 0.99907506 0.17356776
-1.7204587 1.0186653 0.17541361
-1.1318258 1.0166664 0.179342
-0.72524965 1.0132899 0.17815709
-0.18774053 1.0110388 0.17804879
-1.6145418 1.0265177 0.17438006
-1.9295387 0.83856452 0.18129647
-1.8091514 0.86864644 0.18760639
-1.5412085 0.86902606 0.18409729
-1.2705534 0.8694123 0.18055367
-1.1664199 0.8677541 0.18212396
-0.84887141 0.89974421 0.18593249
-1.8133739 0.90191776 0.18848237
-1.4827714 0.91876966 0.18895125
-1.2523954 0.91240519 0.18647766
-1.707515 0.9385736 0.18151498
-1.6202188 0.96883881 0.18804383
-1.3514932 0.96914876 0.1845386
-1.0800514 0.96946239 0.18099922
-1.4130828 0.9782182 0.18295896
-0.85368353 0.97775215 0.18695936
-0.055522077 0.97761726 0.18703936
-1.9644018 1.0074522 0.18084073
-1.6172221 1.0110505 0.18197091
-1.3846976 1.011138 0.18183206
-1.172511 1.0117393 0.18765408
-1.15218 1.0111381 0.18183179
-0.98678493 1.0132338 0.18456481
-0.9196614 1.0112252 0.18169352
-0.6871447 1.0112256 0.18169284
-0.45462894 1.0112252 0.18169355
-0.22211319 1.0112247 0.18169424
0.010401756 1.0112246 0.18169448
-1.1505952 1.0283133 0.18869881
-0.5685463 1.0250969 0.18093613
-0.34003431 1.0246893 0.1819915
-1.5098758 1.0340625 0.18567349
-1.1607013 0.84138161 0.19559145
-1.1541039 0.84122252 0.19439633
-0.72187185 0.86816216 0.19018446
-1.7867727 0.89887285 0.1931451
-0.64956427 0.8940829 0.19446707
-0.26005024 0.89371419 0.19440252
-1.6874568 0.91094077 0.19575357
-1.3674929 0.91762263 0.19288829
-0.57618624 0.92513329 0.19049588
-0.33239347 0.92555332 0.19155398
-1.5866417 0.93427294 0.19955786
-1.8732229 0.9418062 0.19537221
-0.60368824 0.94099385 0.19374928
-0.30559725 0.94115341 0.19370791
-0.31740981 0.95693815 0.19396067
-1.7038101 0.96820599 0.19709319
-1.8683347 0.97184789 0.19044958
-1.1545508 0.97670621 0.1948961
-0.60829425 0.97715986 0.19099075
-0.30086452 0.97742939 0.19083059
-2.028872 0.98090905 0.1954819
-1.4485039 0.98041391 0.19990999
-1.8596692 0.9962337 0.19106649
-1.5905236 0.99982369 0.1964328
-1.4375167 0.99077934 0.19738621
-1.3930256 0.99443543 0.19127956
-0.72647399 0.99818414 0.19606572
-1.134577 1.0073547 0.19534475
-1.6077732 1.0101447 0.19689685
-0.91532749 1.0180607 0.19000965
-1.636135 1.0254946 0.19412255
-1.7046485 0.86910397 0.20153826
-1.4369534 0.90507329 0.2019749
-0.31182748 0.90990865 0.20860122
-0.24771222 0.90740675 0.20069504
-0.59735769 0.91001153 0.20847774
-1.7928368 0.92299831 0.20928437
-1.9361844 0.9451853 0.20165895
-1.7060535 0.9412778 0.20411748
-0.87528139 0.97978365 0.20419154
-0.600299 0.97930145 0.2085129
-1.7793633 0.98741263 0.20750631
-1.3075416 0.99538541 0.20952493
-1.2700757 0.99635631 0.20442548
-1.0498379 0.99890351 0.20354187
-0.98913568 0.99537623 0.20093967
-1.8188477 1.0206528 0.20660883
-0.8720566 1.0233917 0.20438699
-1.5417191 1.0341176 0.20875224
-0.62200117 0.84154266 0.21258005
-0.6174385 0.84122503 0.21494865
-0.29179215 0.8413868 0.21498957
-0.28725743 0.84154266 0.2125797
-0.6989572 0.86699766 0.21322463
-0.21030235 0.86699831 0.21322502
-0.55403662 0.89635122 0.21317914
-0.35519588 0.89646876 0.21329772
-1.3655751 0.9008739 0.2115671
-1.5583085 0.91172487 0.217769
-0.84544933 0.91828275 0.21575046
-1.9005983 0.92583477 0.2142487
-0.64284217 0.92275727 0.21137476
-0.85461682 0.93047518 0.21802962
-0.83775401 0.94093275 0.21414512
-0.071528792 0.94077098 0.21418715
-1.6863899 0.95199567 0.21311331
-1.6890812 0.96550494 0.21004766
-1.7125125 0.97821712 0.21691084
-1.1597366 0.97868848 0.21269296
-1.7334051 0.99101502 0.21867171
-1.1434647 0.99730712 0.21816522
-0.57808477 0.99621981 0.21083674
-0.33117396 0.99621922 0.21083856
-1.1592357 1.0086707 0.21395162
-0.00058229268 1.0066805 0.210302
-0.81380093 1.0298269 0.21419881
-0.77412862 1.0209208 0.21366689
-0.095791839 1.0299177 0.21415314
-0.82889092 0.84170485 0.22966164
-1.7251221 0.88056433 0.22357351
-1.1462349 0.88020849 0.22774029
-1.2707233 0.89166337 0.22959319
-1.6012238 0.92570668 0.22492105
-0.77296966 0.93508631 0.22533238
-1.1719072 0.94133931 0.22103222
-1.2065223 0.96675766 0.22038293
-0.73582959 0.96715182 0.2280736
-0.17342895 0.96715146 0.22807252
-0.14325196 0.98497355 0.22035605
-1.2061744 0.99529105 0.22446616
-0.79594886 0.99357557 0.22718535
-0.74618024 0.99511945 0.22121322
-0.15977889 0.99707812 0.22091037
-0.11366862 0.99394155 0.22711907
-1.48667 1.0189664 0.22324938
-1.4341676 1.0180608 0.22129107
-0.89053178 1.0228701 0.22832695
-0.8256169 0.84122837 0.23539048
-0.083617806 0.84106505 0.23534834
-0.89976633 0.87936902 0.23601279
-0.57436502 0.87971693 0.23194703
-0.33484024 0.87985528 0.23185793
-1.0868211 0.8997435 0.23561463
-0.92601657 0.89996731 0.2341554
-0.87928224 0.90748703 0.23180795
-0.02990175 0.90758681 0.23192008
-0.83607447 0.92337847 0.23466375
-1.993567 0.93278575 0.23320061
-1.3671026 0.94087106 0.2344321
-0.63489676 0.94156545 0.23808834
-0.058027752 0.94088638 0.23653996
-0.65095234 0.96780169 0.23195
-0.25823051 0.96765399 0.23190363
-1.5531608 0.99644768 0.23987967
-1.1752372 0.99795133 0.231163
-1.9069185 1.0158792 0.2324017
-1.6648695 1.0158781 0.23240003
-1.4941218 1.0186654 0.23866922
-1.4705398 1.019882 0.23350142
-1.4228268 1.0157878 0.23224843
-1.1807778 1.0157878 0.23224854
-0.93873179 1.0156975 0.23209667
-0.69668108 1.0156981 0.23209774
-0.45463032 1.0156976 0.23209691
-1.4608287 1.0271492 0.23890668
-1.3734789 0.84186876 0.24683571
-1.7253723 0.86645931 0.24075589
-1.6281145 0.86597395 0.24337187
-2.0092225 0.87855005 0.24408808
-1.457819 0.87902743 0.24002957
-1.8766568 0.89084327 0.24902783
-1.7127305 0.89675057 0.24032816
-1.5509598 0.89887309 0.24238011
-1.1531476 0.91121471 0.24286248
-0.81108564 0.92158228 0.24343801
-0.061033085 0.93638432 0.2422601
-1.9940554 0.94852221 0.2422834
-0.28266484 0.95628732 0.2444194
-1.6272258 0.96887577 0.24385798
-1.8282019 0.99982369 0.24605754
-1.6086431 0.99884152 0.24159943
-0.5862726 1.0060682 0.2434355
-0.32284164 1.0062633 0.24321517
-1.4895847 1.0114424 0.24444291
-1.3544539 1.0166659 0.24156243
-0.57378542 1.0100164 0.24795021
-0.33547279 1.0100161 0.24795048
-2.0135047 1.0206571 0.24725604
-1.3565897 0.84106934 0.25568146
-0.78863776 0.86750078 0.2525242
-0.12062222 0.86750078 0.25252557
-1.0577903 0.89546978 0.25636521
-0.88871545 0.89297789 0.25263625
-0.4943642 0.89907742 0.2563349
-0.41509885 0.89884096 0.25649244
-1.5926819 0.91687435 0.25501359
-1.5246276 0.9193297 0.25263613
-1.4006553 0.91997766 0.25970632
-1.255964 0.91877025 0.25233987
-0.8185755 0.91663641 0.25542301
-1.1919487 0.92135584 0.25532269
-1.6833496 0.93635964 0.25659668
-1.4263304 0.93185228 0.2509121
-0.81430888 0.94162899 0.2551868
-1.1138518 0.96612465 0.25817117
-1.5349348 0.99538529 0.25700229
-1.0406981 0.99635655 0.25231668
-0.81428951 0.99890411 0.25272268
-1.2777612 1.0340115 0.25083768
-1.921046 0.842031 0.26410401
-1.0848873 0.86842346 0.26468575
-0.80652535 0.86750078 0.26230353
-0.98032272 0.89470792 0.26070431
-0.58482492 0.89646792 0.26124102
-0.32440841 0.89635348 0.26112553
-2.0233245 0.90758669 0.26903671
-0.46021867 0.91940367 0.26819518
-0.44938672 0.91918164 0.26790613
-1.6280432 0.96822792 0.26530647
-1.3933613 0.96822721 0.26530683
-1.1586778 0.96822733 0.26530671
-0.92399734 0.96808374 0.26539016
-0.68931383 0.96808398 0.26539004
-0.45462948 0.96808374 0.26539016
-0.21994515 0.9680835 0.26539028
0.014738381 0.96808374 0.2653901
-1.1268268 0.99152207 0.26149678
-1.415566 1.0315928 0.26522678
-0.50229973 1.034284 0.26310742
-0.40671179 1.0343338 0.26335275
-2.0232012 0.84122276 0.27962184
-1.4799867 0.87902653 0.27590078
-0.91635066 0.87841225 0.27928734
-0.83904731 0.89796871 0.27827638
-0.83984107 0.90636551 0.27955779
-0.069277152 0.90616763 0.2793355
-0.87748778 0.92275798 0.27695134
-1.4705303 0.94111562 0.27037358
-1.3571932 0.94169313 0.27237844
-1.3397726 0.96780276 0.2775411
-1.7635056 1.0085704 0.27440509
-1.6437161 0.87715507 0.28952956
-1.0999577 0.87761366 0.28618252
-0.54965621 0.87821817 0.28287819
-0.35949844 0.87794268 0.28271568
-1.3247693 0.89974362 0.28529558
-1.1565784 0.91729808 0.28035018
-1.1540997 0.92653584 0.28779241
-1.9030385 0.94175518 0.28966236
-1.7863972 0.96626949 0.28126118
-1.4832596 1.0129038 0.28371802
-1.4170276 1.0111897 0.2825
-0.88749552 1.0162919 0.28313518
-0.022330143 1.0166316 0.28293639
-1.2265379 1.0211414 0.28784645
-1.6228415 1.0353655 0.28753316
-1.5753431 1.0339366 0.28772801
-1.4883424 0.84138381 0.29431149
-1.0492166 0.86660433 0.29207176
-1.6394637 0.89497125 0.29581439
-1.3151455 0.89887285 0.29161599
-1.255504 0.89711177 0.29967523
-0.95589703 0.89237636 0.29454002
-2.0305614 0.92080635 0.29509524
-0.53928745 0.93511325 0.29112056
-0.36932448 0.93473119 0.29349551
-0.933164 0.94105321 0.29067349
0.023875445 0.94121432 0.29063156
-0.85554463 0.9670043 0.29350656
-1.1275696 0.99448788 0.29362196
-1.0617281 0.99251574 0.29697502
-1.3800216 1.0050037 0.29024222
-0.41382745 1.0191832 0.29984996
-1.1897081 1.0261388 0.29612768
-1.1246706 1.0228703 0.2937637
-1.2371799 0.89578795 0.30646113
-0.8144573 0.89646721 0.30918509
-0.094802484 0.89646876 0.30918658
-1.2177427 0.90873468 0.3033269
-1.5526797 0.91356879 0.3084816
-0.94098884 0.92837894 0.30068299
-0.52780426 0.93177569 0.30611068
-0.38250592 0.93147922 0.30667102
0.0077452958 0.93421644 0.30205905
-1.011626 0.96820575 0.30624491
-0.5275985 0.96675622 0.30721593
-0.38166028 0.96675622 0.30721688
-1.7765332 0.97868794 0.30418777
-1.2115971 0.97821826 0.30748388
-2.0366595 0.98827714 0.3040947
-1.9460099 0.99681354 0.30678809
-0.87094784 0.99461126 0.30176026
-0.81132102 0.99635559 0.30020934
-0.57871437 0.99878573 0.30177465
-0.33054537 0.99878663 0.30177566
-0.09788312 0.99612701 0.3004432
-1.7653433 1.0074522 0.30752856
-1.5770813 1.0166662 0.30378124
-1.2677852 1.0186656 0.30192471
-0.4957791 1.0189658 0.30013725
-0.53856969 1.0246384 0.30487704
-0.36993811 1.0250963 0.30368507
-0.95340067 0.84138137 0.3140122
-0.94791806 0.841223 0.3121804
-1.8992612 0.86985922 0.31043562
-1.6584898 0.86986136 0.31043437
-1.4160569 0.86893606 0.31138724
-1.3783586 0.86685151 0.31366956
-1.1769443 0.86986041 0.31043503
-0.9361738 0.86986113 0.31043461
-0.69540197 0.86985898 0.3104358
-0.45462942 0.87000865 0.31034207
-0.82794881 0.89650071 0.31722289
-0.081310809 0.8965019 0.3172242
-1.5061778 0.90873426 0.31139922
-1.9094026 0.91596496 0.31690848
-1.6669407 0.91596627 0.31690645
-1.4244835 0.91605753 0.31675595
-1.1820209 0.91605741 0.31675619
-1.0291548 0.91877025 0.31572789
-0.93956101 0.91615009 0.31660342
-0.69709408 0.91614985 0.31660378
-0.62244266 0.91461241 0.31576329
-0.45462883 0.91614997 0.31660342
-0.28736091 0.91495287 0.31596041
-0.53163791 0.9255535 0.31469432
-0.37695196 0.92513376 0.31363121
-1.8173652 0.93137717 0.31303698
-0.51061118 0.94115388 0.31082216
-0.39867321 0.94099241 0.31086484
-1.9980991 0.96929336 0.31931973
-1.3525214 0.97683984 0.31714058
-0.80739129 0.97715843 0.31404078
-0.65339893 0.97775275 0.31074154
-0.25580627 0.97761679 0.31082225
-0.23864099 0.97034067 0.31596181
-0.10176821 0.97742999 0.31387842
-1.1201359 1.017079 0.31173235
-1.783299 1.0205822 0.31143218
-1.6206541 1.0254211 0.31138915
-1.3874444 1.0254692 0.31123194
-1.1542408 1.0254693 0.31123179
-0.94686389 1.0283127 0.31460989
-0.9210372 1.0254693 0.3112317
-0.68783283 1.0254692 0.31123209
-0.45462888 1.0255177 0.31107354
-0.22142732 1.0255167 0.31107652
0.011775404 1.025517 0.31107596
-1.04564 1.0339603 0.31600392
-0.47725952 0.86790359 0.32656115
-0.43199933 0.86790562 0.3265596
-1.9337068 0.89121652 0.32698271
-1.6646655 0.89627093 0.32069784
-1.3166783 0.89547002 0.32805854
-1.2065995 0.89225513 0.32789513
-0.49786982 0.89734447 0.32824707
-0.41138792 0.89734566 0.3282474
-1.6318712 0.90507329 0.32602736
-2.0440948 0.92455846 0.32206506
-0.96830964 0.92649031 0.32876709
-0.69314063 0.93484604 0.32084507
-1.4999346 0.94127786 0.32186317
-1.9383081 0.95817149 0.32450157
-1.6549397 0.98041248 0.32749319
-0.81116176 0.99227434 0.32663393
-1.6254045 1.0006676 0.32423529
-0.93544167 1.0074532 0.32192093
0.026413381 1.0071559 0.32225883
-0.97280782 1.0144904 0.32663006
-1.0045968 1.026183 0.32464322
-0.49627364 0.84146595 0.33189017
-0.41297129 0.84138381 0.3318696
-1.4515669 0.86883736 0.33987725
-1.7959051 0.89715844 0.33931103
-1.5627192 0.89974433 0.33497617
-0.92185599 0.89820319 0.33946842
-0.72343951 0.89458328 0.33347774
-0.51579648 0.90990901 0.33841377
-0.39338872 0.91001093 0.33829188
-1.6245531 0.92587626 0.33294898
-1.3905621 0.92582643 0.3327907
-1.1565791 0.92582631 0.33279026
-0.92259634 0.92582679 0.33279178
-0.68861163 0.92582631 0.33279029
-0.45462924 0.9257769 0.33263332
-0.22064808 0.92577708 0.33263391
0.013335913 0.92577642 0.33263189
-1.0422211 0.94093013 0.33094805
-0.96523345 0.94133961 0.33909482
-1.4585667 0.96574265 0.33605096
-1.0804 0.97992516 0.33108902
-0.95703602 0.97868764 0.33796811
-0.51289159 0.97930229 0.3345499
-0.3963685 0.97930181 0.33454907
-0.47422108 1.0307513 0.33579299
-0.43593574 1.0309951 0.33626893
-1.0373189 0.84170485 0.34872639
-1.6345929 0.8685106 0.34474152
-1.398599 0.86851072 0.34474158
-1.1626078 0.86851132 0.34474194
-0.92661393 0.86851144 0.34474206
-0.69062322 0.86865723 0.34482679
-0.45462918 0.86771768 0.34274927
-0.21863452 0.86865604 0.34482601
0.017358541 0.86865568 0.34482589
-1.0793326 0.89887309 0.34085092
-0.17723644 0.90853411 0.34195137
-1.3547601 0.92770427 0.3424094
-1.1121312 0.92275727 0.34253013
-1.7847086 0.93441767 0.3452352
-0.05861187 0.96067774 0.34566814
-1.5110276 0.97821879 0.3414368
-1.1838791 0.9998638 0.34585392
-0.58197021 0.99624097 0.34821838
-0.32726297 0.99612617 0.34833625
-0.95789486 1.0086701 0.34209111
-0.55342495 1.0149084 0.34302321
-0.35624388 1.0146575 0.34316972
-1.7390193 1.0339777 0.34079161
-1.0307014 0.84122914 0.3525455
-0.77969712 0.87971598 0.35885003
-1.9329942 0.88056493 0.35204512
-1.3528312 0.88020849 0.35542387
-1.5523795 0.89706087 0.35316163
-1.3535774 0.89919585 0.350963
-1.0441086 0.89635187 0.35701194
-0.67993999 0.90748638 0.35867539
-0.22924387 0.9075861 0.35878748
-1.0424386 0.9151237 0.35187998
-1.7998674 0.9208827 0.35940796
-1.4615908 0.92737025 0.35260469
-0.60308683 0.93481308 0.35893831
-0.30555239 0.93516791 0.35673779
-1.5710263 0.9408713 0.35092354
-0.48159373 0.94156641 0.35646984
-0.42766601 0.94156533 0.35646906
-1.4415362 0.96651208 0.35397652
-0.97917795 0.9675476 0.35717314
-0.12856629 0.96314985 0.35681123
-0.56606871 0.99890447 0.3510834
-0.34316513 0.99878669 0.35095593
-1.3587624 1.0229471 0.35935578
-0.98095965 1.0266355 0.35502383
-1.5824758 0.84186792 0.36622572
-1.8075863 0.87855077 0.36870536
-1.2550123 0.87888706 0.36549079
-0.69567764 0.87937033 0.36214539
-0.21358055 0.87936997 0.36214498
-0.63598663 0.89310026 0.36053607
-0.27350315 0.89334404 0.36058033
-0.66205025 0.93019325 0.3638584
-0.24687807 0.93028694 0.36379868
-1.7533269 0.94665647 0.36612242
-0.50117016 0.96725398 0.36733726
-0.4079386 0.96754789 0.36742562
-1.4647949 0.99529165 0.3611784
-0.75039625 0.99895757 0.36700517
-0.15896711 0.99907625 0.36708546
-0.78310281 1.0060681 0.36870536
-0.12601431 1.0062633 0.3684831
-1.0414491 1.0186648 0.36518207
-1.0204111 1.0307512 0.36557719
-1.5611267 0.84106952 0.37252349
-1.9569439 0.86606944 0.37369731
-1.3961484 0.86621404 0.37016982
-1.3595949 0.9113189 0.3740766
-1.1384374 0.91314888 0.37469769
-0.80234611 0.91877013 0.3791154
-0.10687043 0.91884553 0.3792592
-0.9313736 0.92728841 0.37930694
-1.022102 0.94162804 0.37388843
-1.5299016 0.99443471 0.37648112
-1.3753979 0.99175954 0.37121046
-0.54129773 0.99381888 0.3777681
-0.36807963 0.99394119 0.37779784
-0.77745855 1.0100168 0.37757558
-0.46137014 1.0162919 0.37089625
-0.44761077 1.0161216 0.37078246
-1.5531224 1.020582 0.37576056
-0.62195915 1.0300989 0.37215915
-0.28713408 1.0300531 0.37212864
-1.028071 0.86710066 0.38733074
-1.8006682 0.89974338 0.38465855
-0.8434965 0.89899158 0.38995945
-1.6361483 0.93185216 0.38058698
-1.2644112 0.94111556 0.38811922
-1.7329054 0.96762955 0.38607687
-1.375922 0.96846402 0.38122612
-0.87839377 0.96636772 0.38560385
-1.5990212 0.99610877 0.3846857
-1.1271033 0.99526197 0.38781604
-0.58472556 0.99818361 0.38785791
-0.32463557 0.99806696 0.38778183
-1.797822 1.0254189 0.38162649
-1.5090116 1.0265568 0.38112795
-1.0307662 1.0233922 0.3886922
-0.81351411 1.0339094 0.38117191
-1.817016 0.84122264 0.39740527
-1.0515486 0.86775517 0.39227444
-1.6126643 0.8720637 0.3980771
-1.6585199 0.89611834 0.39651346
-1.6299129 0.89096153 0.39149895
-1.8239824 0.9075855 0.3959071
-1.5202895 0.9183141 0.39277363
-1.034835 0.91677463 0.39967334
-0.51730072 0.91681027 0.3964777
-0.39168191 0.91663766 0.39659035
-1.7026098 0.93535137 0.39756036
-1.0761571 0.93173361 0.39065731
-0.018165737 0.93889403 0.39947081
-2.0242586 0.9442699 0.39948624
-1.5655514 0.94169158 0.39140272
-1.8910825 0.96963984 0.39778024
-1.6516732 0.96963894 0.3977797
-1.4122646 0.96963948 0.39778
-1.1728568 0.96963948 0.39778
-0.93344748 0.96963853 0.39777946
-0.69403887 0.96963906 0.39777976
-0.45463037 0.96963954 0.39778006
-1.8088567 0.97190398 0.39839733
-0.71735579 0.99621981 0.39927772
-0.55664235 0.99612784 0.39622632
-0.49052334 0.99316323 0.39280003
-0.41908616 0.99279869 0.39286873
-0.35259193 0.99624109 0.39611018
-0.19190308 0.99621969 0.39927867
-1.6015463 1.0184796 0.39364603
-0.61815935 1.0209197 0.3947849
-0.2902852 1.0214356 0.39551401
-1.6245966 1.0316461 0.39461833
-1.8811836 0.80006737 0.40930262
-1.6434256 0.80006653 0.40930262
-1.4056656 0.80006695 0.40930262
-1.1679065 0.80006772 0.40930262
-0.93014741 0.80006868 0.40930262
-0.69238853 0.80006737 0.40930262
-0.45463043 0.80006665 0.40930262
-1.7123423 0.83975708 0.40254229
-1.4575522 0.83964616 0.40377823
-1.2040105 0.83937049 0.40501255
-0.95181882 0.83926129 0.40623632
-0.70363271 0.83904386 0.40866235
-0.45462948 0.8390432 0.4086656
-0.20290522 0.83893561 0.40986982
-1.2802076 0.84138286 0.4099794
-0.8373059 0.86816168 0.40136379
-1.3218322 0.87165278 0.40061685
-1.2992014 0.87761438 0.4093225
-1.2771311 0.87902617 0.40127206
-1.0340178 0.87124467 0.40312994
-0.75014091 0.87808013 0.40667081
-0.74917543 0.87084138 0.40561646
-0.71471399 0.87841189 0.40390539
-0.46716833 0.87029523 0.40807977
-0.44191033 0.87058777 0.4080731
-0.19443606 0.87868851 0.40407005
-0.15906595 0.87794197 0.40658927
-1.5194312 0.89154327 0.40195927
-1.3207276 0.89706111 0.4015283
-1.2737377 0.89635253 0.40495691
-0.69238853 0.89994705 0.40930262
-0.51460457 0.89383543 0.40930444
-0.45463043 0.89994776 0.40930262
-0.39465573 0.8938362 0.40930483
-0.21687052 0.89994746 0.40930262
0.020888567 0.89994657 0.40930262
-1.6434187 0.90011805 0.40930539
-1.5113828 0.9008733 0.40885359
-1.4056594 0.90011716 0.40930539
-1.167904 0.90011859 0.40930539
-1.0369463 0.9063648 0.40500125
-0.93014497 0.90011775 0.40930539
-0.56280673 0.91527748 0.40638328
-0.3463034 0.91536748 0.40637973
-1.3467271 0.92267948 0.4082619
-1.9397097 0.93972492 0.40269923
-1.6844199 0.93963158 0.40393502
-1.4304349 0.93954003 0.40516478
-1.1777457 0.93944907 0.406387
-0.92634201 0.939358 0.4076044
-0.67621428 0.93926698 0.4088164
-0.23309666 0.93943089 0.40881687
-0.72759801 0.9410544 0.40810275
-0.1816889 0.94121611 0.40805966
-1.5884465 0.96820527 0.40814376
-1.5171912 0.97156566 0.40093291
-1.2285507 0.97123098 0.40344268
-0.94288945 0.97089851 0.4059262
-0.66015911 0.97057188 0.40838417
-0.24900895 0.97042686 0.40838167
-1.8163482 0.99800074 0.40549833
-1.0029683 0.99730808 0.40826595
-0.80158967 0.99902171 0.40039006
-1.5621657 1.0085697 0.4025459
-1.3333584 1.0189667 0.40128559
-1.1158047 1.0167016 0.40052298
-1.0694853 1.0131514 0.4014695
-0.64362335 1.0148846 0.4072043
-0.26578361 1.014972 0.40720701
-1.6183829 1.0271019 0.40418911
-1.9295386 0.83856511 0.41580528
-1.687345 0.8386696 0.41462895
-1.4439774 0.83861512 0.41345102
-1.1993418 0.83872062 0.41226381
-0.95347071 0.83882707 0.4110707
-1.2829909 0.8413837 0.41484737
-1.8218 0.86910325 0.41585952
-1.5412083 0.86902666 0.41767001
-1.2705538 0.86941153 0.41530824
-0.99714845 0.86979878 0.41292113
-0.188135 0.86990041 0.41051641
-0.72094762 0.87019181 0.41051027
-1.4498081 0.89624357 0.41701803
-1.2787558 0.9183709 0.4199166
-1.2523946 0.91240567 0.41925907
-0.8056016 0.91382241 0.41290796
-0.10379997 0.91390991 0.41290575
-1.763144 0.92570692 0.41295248
-0.99513543 0.92337823 0.41937619
-1.7075145 0.93857241 0.41595021
-1.4648838 0.93882298 0.41477877
-1.2209911 0.93890953 0.41359824
-0.97587031 0.93899798 0.41241223
-0.72951221 0.93908757 0.41121933
-0.48190683 0.93917698 0.41001996
-0.42735246 0.93917692 0.41001993
-1.973156 0.9664923 0.4131248
-1.351493 0.9691484 0.41796663
-1.0800524 0.96946406 0.41560635
-0.80585212 0.96978045 0.41322184
-0.52885163 0.97010082 0.4108147
-0.38031811 0.9702459 0.41081753
-0.60898191 0.99707705 0.4110142
-0.30027792 0.99707764 0.4110136
-1.5747353 1.0051005 0.41401237
-1.6230917 1.0111898 0.41364673
-1.0018015 1.0180604 0.41640019
-0.72525138 1.013291 0.41371143
-0.18774065 1.0110388 0.41364011
-0.74173242 0.8412236 0.4299643
-1.8091514 0.86864656 0.4200117
-0.81217921 0.86699706 0.42035592
-0.097080886 0.86699885 0.42035657
-1.0705005 0.89996779 0.42964888
-0.59863001 0.89408344 0.42765224
-0.31098479 0.89371359 0.42758411
-1.6874571 0.91094065 0.42544222
-1.5692022 0.92088312 0.42387247
-0.73651493 0.92843306 0.42685893
-0.65477943 0.92158234 0.42495063
-0.25366545 0.92105532 0.4256795
-0.83685654 0.93489504 0.42438281
-1.8262031 0.94121635 0.42215163
-0.71562433 0.94115388 0.42793611
-0.19365832 0.94099349 0.42797938
-1.6202179 0.96883762 0.42030197
-1.093369 0.96675742 0.42738891
-1.5738322 0.97868848 0.42946339
-1.8682818 0.98243642 0.42199156
-0.074504457 0.98595196 0.42820886
-1.8075137 0.99623406 0.42983925
-1.4867959 0.99077934 0.42299229
-1.4138923 0.99644721 0.42831624
-1.0334862 0.99795109 0.42295972
-1.6077733 1.0101447 0.42620441
-1.1725113 1.0117395 0.42004228
-0.81511277 1.0186653 0.42843688
-0.094147056 1.0186647 0.42843851
-1.5929006 1.0229466 0.42479095
-0.73718864 1.0246384 0.42763019
-0.17124549 1.0251474 0.4262985
-0.74610072 0.84138161 0.43243244
-0.16749726 0.84138453 0.43000609
-0.60770661 0.89887381 0.43932071
-0.301577 0.89899194 0.43919474
-1.3045483 0.90873414 0.43972307
-1.0161127 0.90873456 0.43165165
-1.6400092 0.91180825 0.43204629
-1.3708776 0.91940415 0.43094906
-1.8288201 0.92304218 0.43334532
-1.0356466 0.92135656 0.4368329
-0.73088157 0.92555374 0.43783462
-0.17763349 0.92508107 0.43663141
-1.9360352 0.9342978 0.43312067
-1.2938181 0.94127601 0.43960673
-1.8338237 0.96100557 0.43446916
-0.62213135 0.96715158 0.43607685
-0.28712738 0.9671517 0.43607566
-1.5504457 0.97684115 0.43946332
-1.0101115 0.97821844 0.43200877
-1.0064881 0.97715819 0.43708944
-0.45460248 0.97768557 0.4345634
-1.4656196 0.99884081 0.43511903
-1.5662858 1.0074534 0.43421763
-1.8186845 1.0101279 0.43542254
-0.57311225 1.0343831 0.43793753
-0.33552489 1.0342592 0.43733051
-0.70306182 0.84138745 0.44992796
-0.20617171 0.84122455 0.44988501
-1.7397318 0.86597359 0.44756773
-1.6648095 0.86827219 0.44383401
-1.612692 0.86645848 0.44689772
-0.93208134 0.91828299 0.44255465
-0.60302293 0.91918218 0.44631988
-0.57553685 0.91877025 0.44250345
-0.3336798 0.91884553 0.44264698
-0.30658036 0.91940379 0.4466103
-1.6261485 0.93427283 0.44454318
-1.2466885 0.94093156 0.44774973
-2.0013468 0.96189398 0.44039732
-0.76575643 0.96780097 0.44197524
-0.24733414 0.96110451 0.44515982
-0.14342576 0.96765363 0.44193053
0.0054890551 0.98971134 0.44501045
-1.8733695 0.99538291 0.44538212
-1.8176898 0.99560213 0.44801855
-1.6841271 0.99101585 0.44427618
-1.0371385 0.99902105 0.44956949
-0.78602219 0.99612701 0.44411936
-0.12323706 0.99612629 0.44412038
-0.73638272 1.007453 0.44860956
-0.17264879 1.0071561 0.44894871
-1.3476944 1.0180606 0.44768196
-1.592422 1.0282085 0.44800788
-1.3229492 1.0205817 0.44008815
-0.74304903 1.0282602 0.44037941
-0.58138281 1.0338583 0.44634047
-0.32719094 1.0342408 0.44885629
-0.70298392 0.84154338 0.45006362
-1.5033674 0.89635289 0.45290145
-1.3204434 0.89166313 0.4572165
-1.0891043 0.89717901 0.45001537
-0.63754863 0.8990773 0.45007122
-1.3076409 0.91729867 0.45577553
-1.6035707 0.92848694 0.45867884
-0.81646818 0.93052179 0.45564038
-0.75855982 0.94133979 0.45715743
-1.7437277 0.96887672 0.45699131
-1.2855749 0.97992313 0.4578923
-1.8613741 0.9804132 0.45507723
-1.5828929 0.99800074 0.45424134
-0.69241047 0.99316323 0.45257896
-1.5712712 1.0114421 0.45830229
-0.7757954 1.0297821 0.45091492
-0.13412768 1.029963 0.45081934
-1.581072 1.0341178 0.45278758
-1.2457478 0.84170544 0.46779138
-1.2357852 0.84122837 0.46969956
-0.6743201 0.86750054 0.46166074
-0.23493887 0.86750013 0.46166077
-0.71976471 0.90990913 0.46822631
-1.7789024 0.95738429 0.46261719
-1.2259316 0.96612477 0.46321341
-1.8580849 0.97761583 0.46855593
-1.3095436 0.97821748 0.46595967
-0.75433242 0.97868669 0.46324492
-0.71682155 0.97930229 0.46058559
-1.2578983 0.99529129 0.46126515
-0.74506521 0.99357599 0.46013448
-0.16455075 0.99394119 0.46006495
-1.5582989 1.0198817 0.46325719
-0.11003251 1.0193552 0.46154061
-1.0705744 1.0211407 0.46896327
-1.4086781 1.0339367 0.46208847
-1.200888 0.86842263 0.47690219
-0.69220805 0.86750013 0.47143844
-0.21705106 0.86750066 0.47143877
-1.8273296 0.89084309 0.47485387
-0.69714105 0.89796853 0.47028318
-0.21231836 0.89820445 0.47012886
-0.73319805 0.91663766 0.47895008
-0.17676686 0.91620445 0.47869438
-1.5813711 0.9226796 0.47383904
-1.7969018 0.93635929 0.47869205
-0.68882543 0.94156402 0.47485021
-0.22043344 0.94156402 0.47485033
-0.022829967 0.94016242 0.47208104
-0.75655603 1.0086701 0.47023031
-0.56713802 1.0191834 0.47788286
-0.34246364 1.0189667 0.47817409
-1.7915078 0.84203124 0.48556745
-1.7656631 0.84107018 0.4893654
-0.9850297 0.87971658 0.48575196
-0.49159279 0.87936997 0.48827705
-0.41766778 0.87936985 0.48827788
-1.5594255 0.88020897 0.48310578
-1.7764847 0.89497256 0.48121345
-1.1148511 0.89711225 0.48998517
-0.83819145 0.89297909 0.4839353
-0.53736556 0.89887249 0.48855749
-0.3718943 0.89887261 0.48855725
-0.07118021 0.89309943 0.48390687
-0.48052475 0.90738595 0.48542932
-0.42851132 0.90768617 0.48576871
-1.9670745 0.91197276 0.48057237
-1.4885776 0.9199779 0.48988926
-1.3385398 0.92088342 0.48833671
-1.0705854 0.93494946 0.48999995
-1.5974134 0.94134027 0.48604727
-1.6743178 0.96626866 0.48630175
-1.2249691 0.96780205 0.48756665
-1.5794606 0.9972291 0.48923364
-1.176497 0.9915216 0.4888953
-1.2707734 1.017007 0.48688638
-1.1618986 0.86660421 0.49821568
-1.6059481 0.87854981 0.4933255
-1.0521584 0.87888873 0.49086004
-1.3753932 0.89578652 0.49346843
-1.1095675 0.89546955 0.49340862
-0.92896986 0.89470744 0.4958013
-0.85744923 0.89717734 0.49838072
-0.051781382 0.8972941 0.49850017
-0.86071128 0.93479276 0.49666378
-1.2298956 0.94162887 0.49259108
-1.2726847 0.99902147 0.49874952
-1.015403 0.99612665 0.49201217
-0.98000437 1.0061655 0.49386424
-0.58877468 1.018665 0.49169365
-0.32048306 1.0186652 0.49169308
-1.8269877 1.0230228 0.4903805
-1.6142966 0.8415432 0.50830722
-1.7330137 0.89623666 0.50072646
-1.5252454 0.89627069 0.50934076
-0.96727359 0.89661753 0.50594008
-1.5659617 0.91131866 0.50541615
-0.56049097 0.91884494 0.50603431
-0.34872749 0.91877031 0.50589156
-1.5134826 0.92772919 0.50868672
-1.058293 0.94111598 0.50586432
-0.74184549 0.96700275 0.50150955
-1.3494368 0.99800098 0.50298482
-1.4004252 1.0129035 0.50057971
-0.98113143 1.0100162 0.50719935
-0.80227023 1.016292 0.50625765
-0.10755352 1.0166318 0.50605309
-1.0927373 1.0205078 0.50426775
-1.7359009 1.0353649 0.50865668
-1.6108295 0.84122169 0.51518995
-0.5520432 0.89734477 0.51855981
-0.3572163 0.89734501 0.51855969
0.049065277 0.90736133 0.5125556
-1.11691 0.92653596 0.5184046
-1.8458678 0.93179685 0.51040709
-1.7739104 0.94169146 0.51042795
-1.1269902 0.96820635 0.51729649
-0.64075285 0.96675682 0.51422328
-0.26850575 0.96675789 0.51422334
0.05850713 1.0048749 0.51622969
-0.55935413 1.0341642 0.51385289
-0.34929156 1.0338329 0.51168019
-1.0734655 0.84138256 0.52808094
-1.2989643 0.86801219 0.52351719
-1.2651371 0.86685091 0.52080113
-1.6422422 0.87950855 0.5246557
-1.0742793 0.87902749 0.52664244
-0.51307935 0.8784126 0.52852303
-0.39607364 0.87868977 0.52868998
-1.9285123 0.89544392 0.52836108
-1.0060154 0.89237589 0.52398562
-1.6246381 0.90758681 0.52277476
-1.4697005 0.91356874 0.52572441
-0.63750625 0.93177605 0.5206697
-0.27280951 0.93147945 0.52122062
-0.5220331 0.94105417 0.52553201
-0.38725293 0.94121397 0.52548915
-1.783945 0.97041082 0.52403206
-1.0762682 0.99448907 0.52847958
-1.0116593 0.99251443 0.5261898
-1.7710459 1.0006673 0.52129531
-1.7632868 1.0116736 0.52295023
-1.1526537 1.0261385 0.52589679
-1.8337202 1.0316463 0.52386433
-1.076248 0.84138358 0.53294945
-0.59213293 0.86790419 0.53671348
-0.3171261 0.86790419 0.5367139
-1.498446 0.87761474 0.5324626
-0.95057631 0.8780793 0.53054589
0.041366294 0.8779434 0.53046435
-0.77656388 0.89853907 0.53463465
-0.12941337 0.89808589 0.53140438
-1.2341188 0.90626657 0.53033412
-1.6346483 0.91311616 0.53802723
-1.398645 0.91311586 0.53802669
-1.162636 0.91302651 0.53788477
-0.92663538 0.91302645 0.53788465
-0.70660251 0.91461241 0.53609669
-0.69063139 0.91293663 0.53774202
-0.45462802 0.91293627 0.53774142
-0.21862912 0.91293681 0.53774226
-0.20319995 0.91495335 0.53629881
0.017372638 0.91293591 0.53774077
-1.8160131 0.9226796 0.53941637
-1.6206379 0.94121456 0.5395804
-1.6338609 0.96861166 0.53780806
-1.3980153 0.96861118 0.53780824
-1.1621736 0.96846622 0.53789407
-0.92632431 0.96846789 0.53789318
-0.69047785 0.96846694 0.53789371
-0.45463035 0.96846765 0.53789335
-0.21878225 0.96846598 0.53789431
0.017067075 0.96846741 0.53789347
-1.348063 0.99722815 0.53754801
-1.244803 0.99624109 0.53978539
-0.92224777 0.99461126 0.53661716
-1.360824 1.00857 0.53068674
-0.53554606 0.84122205 0.54774791
-0.37368602 0.84138614 0.5477922
-0.57293081 0.86724848 0.54983932
-0.33632833 0.86724824 0.54983938
-1.8464339 0.89801723 0.5418101
-1.2103926 0.89919561 0.54469889
-0.62579668 0.89717793 0.54674798
-0.28343675 0.89729387 0.54686719
-0.92061496 0.9409923 0.54509425
-1.8395581 0.96861494 0.5400272
-1.5701168 0.96574217 0.54012477
0.0080362856 0.98807031 0.54224944
-1.9986049 0.99681258 0.54756951
-1.5082637 0.99890482 0.54780424
-1.3281996 0.99986416 0.54112756
-1.8292406 1.0110865 0.54466951
-0.88879412 1.01449 0.54657924
-0.5834592 1.0307512 0.54944652
-0.32684952 1.0310354 0.54999435
-0.53880012 0.84138125 0.55085325
-0.37046009 0.84138232 0.55085337
-1.568141 0.86883688 0.55314189
-1.156482 0.89225465 0.55734098
-1.6485462 0.90008712 0.55808836
-0.81448334 0.90873468 0.5599755
-1.1078391 0.92095983 0.55265105
-1.0054989 0.92649031 0.55937922
-0.53203964 0.92848682 0.55303729
-0.37773642 0.9288103 0.55218583
0.021599896 0.92508125 0.5597651
-1.3043213 0.93500417 0.55561703
-1.0877008 0.94127715 0.55735177
-1.3289222 0.96651244 0.5599966
-1.3711324 0.97868764 0.55473953
-0.80862761 0.9782176 0.55653328
-0.65637624 0.97761655 0.55838835
-0.25277996 0.97788948 0.55822289
-0.10057551 0.97807968 0.55661631
-1.1159815 0.99800098 0.55172789
-0.86123013 0.99227446 0.55585206
-0.54682064 1.0186653 0.55494905
-0.36247814 1.018592 0.55509222
-1.0416508 1.0261831 0.55441129
-0.93580848 1.0246387 0.55038339
-0.91084749 0.8415429 0.56880593
-0.90869737 0.84138834 0.56739771
-0.00053827465 0.84122425 0.56735319
-1.2649006 0.89546978 0.56510174
-0.77479243 0.894584 0.56857371
-1.102919 0.90873402 0.56804699
-0.78730094 0.91884559 0.56942379
-0.12195645 0.91884553 0.56942403
-1.35549 0.92737031 0.56012285
-0.93012786 0.92555308 0.56097317
-1.9337549 0.9467963 0.56173426
-1.4511572 0.9409318 0.56455255
-0.86493021 0.96754801 0.56618112
-0.044251397 0.96740043 0.56622148
-1.2056333 0.97729456 0.56005549
-0.2941955 0.98842478 0.56867689
-1.6667765 0.99443448 0.56168032
-0.89342105 0.99895686 0.56052381
-1.3672273 1.0074534 0.56090552
-0.63743556 1.0149088 0.5629642
-0.27223149 1.0146577 0.56311572
-1.9593797 1.0254186 0.56923735
-1.0864855 1.0265963 0.56176353
-0.8625614 1.0205073 0.56859553
-0.53923404 1.0282091 0.56615299
-0.37062588 1.0278431 0.56516212
-1.8447982 0.86606979 0.57885981
-1.5082937 0.86621439 0.57533252
-0.95827615 0.91512358 0.57222062
-1.5347638 0.93535137 0.57315677
-0.55188674 0.94133961 0.57521957
-0.35734779 0.94150233 0.57526815
-0.52226233 0.9674018 0.57639205
-0.38692069 0.96725345 0.57634813
-1.2651657 0.99526244 0.57462084
-0.46638364 0.99806809 0.57957649
-0.44297522 0.99818283 0.57965213
-0.53732467 1.0074532 0.57529664
-0.37178528 1.0072556 0.57552409
-1.1799341 1.018894 0.57922012
-1.3885956 1.0282612 0.57378328
-1.1896009 1.0233169 0.57289189
-0.46219331 1.0209204 0.57590508
-0.44636455 1.0213612 0.57652187
-0.91117215 1.0307513 0.57923245
-0.79152584 1.034088 0.57885498
-1.4541781 0.84170473 0.5868575
-1.4408697 0.84122902 0.5868544
-1.0089636 0.89875448 0.58715332
-1.3990867 0.928433 0.58486152
-1.0373317 0.92732918 0.58689457
-1.4907497 0.97992408 0.58469808
-0.92075235 0.97930193 0.5866214
-0.55168545 0.97882491 0.58860779
-0.35757488 0.97882503 0.58860844
-0.05859654 0.97154117 0.5829801
-2.0678122 0.98041368 0.58266348
-1.4741821 0.99624145 0.58767706
-1.1166642 0.99722832 0.5858615
-0.85662454 0.99621886 0.58771741
-1.8738688 1.017078 0.582623
-1.4033451 1.0265568 0.58779782
-1.6996636 1.0339781 0.58482975
-1.8919774 0.86940801 0.59332931
-1.6524208 0.86940783 0.59332943
-1.4128664 0.86955589 0.59323835
-1.1733079 0.86955494 0.59323895
-0.93374789 0.86955476 0.59323907
-0.91423231 0.867248 0.59541523
-0.69418937 0.86955553 0.59323853
-0.4546302 0.8695541 0.59323943
-1.6127181 0.89801675 0.590608
-0.68650919 0.89310038 0.59183437
-0.51509202 0.89729375 0.59523422
-0.39414278 0.89717746 0.59511435
-0.22298002 0.89334464 0.59188372
-0.92373383 0.90990841 0.59804052
-1.221285 0.91323233 0.59198523
-1.9269568 0.92513299 0.59407258
-1.7452017 0.9344179 0.5902229
-0.89605755 0.94156533 0.59323215
-0.12864941 0.95259351 0.59420806
-1.4918525 0.96846426 0.5933131
-0.99100924 0.96636748 0.59162617
-1.6578454 0.97775251 0.59242553
-1.1080577 0.97821742 0.59048462
-1.7438142 0.99890351 0.59698331
-1.4130709 0.99529105 0.59797913
-1.3257276 0.99175918 0.59860539
-0.86247039 0.99730802 0.59836686
-0.55521673 1.0086703 0.59837013
-0.35389647 1.00887 0.59860867
-0.54659444 1.0162922 0.5940181
-0.36238584 1.0161222 0.59390765
-1.7547112 1.022513 0.59081399
-0.93675315 0.86790359 0.60246837
-1.7528865 0.89138615 0.60124171
-1.6573012 0.90099394 0.60606021
-1.2171271 0.91947806 0.60926372
-1.9250652 0.92570728 0.60098416
-1.154195 0.92337823 0.60408628
-0.49847323 0.9215824 0.60646307
-0.41008168 0.92113012 0.60708231
-0.96660852 0.93177563 0.60528994
-0.70052904 0.93024009 0.60140979
-0.20872876 0.93024063 0.60140765
-1.3907415 0.94133896 0.60410929
-0.88252687 0.99800044 0.60047019
-0.46848205 0.99707758 0.6011169
-0.44077718 0.99707824 0.60111547
-0.0041257292 1.0054094 0.60099763
-1.9295096 1.0250455 0.60658896
-0.66012722 1.0300989 0.60884237
-0.24896613 1.0300534 0.60881346
-1.9368889 0.8412258 0.61494577
-1.6404749 0.86880726 0.61916816
-1.403306 0.86880714 0.6191681
-1.166137 0.86880702 0.61916798
-0.95274067 0.86816168 0.61254358
-0.92897069 0.86895412 0.61925507
-0.6917991 0.86895341 0.61925471
-0.45462838 0.86895233 0.61925405
-0.21745783 0.86895317 0.61925453
0.019711137 0.86895305 0.61925441
-1.9527438 0.87808013 0.61972141
-1.4043115 0.87855011 0.61794353
-1.1903626 0.87971598 0.61265528
-0.84930658 0.87888736 0.61623049
-0.62169915 0.87922859 0.61449897
-1.7660218 0.88020885 0.61078942
-1.6792406 0.89096189 0.61732769
-0.62792736 0.9075861 0.61252379
-0.28118497 0.90738571 0.61229587
-1.9119987 0.91722518 0.61227107
-1.6313788 0.92337871 0.61142075
-0.87831998 0.92119592 0.61777914
-1.4376894 0.94162768 0.61129302
-0.095987424 0.945032 0.61975867
-1.4730816 0.96820587 0.61919504
-1.2746236 0.99644697 0.61675364
-0.89173573 0.99795157 0.6147548
-0.59217906 0.99382031 0.61071527
-0.31719676 0.99394047 0.61074275
-0.017522559 0.99795109 0.61475408
-1.1768334 1.0061661 0.6191324
-1.8217268 1.0197942 0.61717242
-1.1523175 1.0131512 0.61832839
-0.7731573 1.0186651 0.61820519
-0.13614139 1.0185909 0.61835027
-0.73950654 1.0344326 0.61251879
-1.4069954 0.84154391 0.62672848
-0.92540103 0.8669979 0.62748843
0.016141832 0.86699796 0.62748861
-1.4697113 0.89154375 0.62958097
-1.2149835 0.89996696 0.62514341
-0.7566604 0.9191817 0.62473226
-0.47706011 0.9166373 0.62011552
-0.43192169 0.91680968 0.62000608
-0.15282717 0.91933024 0.62492949
-1.8970888 0.9289934 0.62661314
-1.6566854 0.92904496 0.62644482
-1.4162853 0.92914689 0.62611151
-1.1758769 0.92919815 0.6259439
-0.93546647 0.92930019 0.62561035
-0.69504905 0.92929995 0.62561107
-0.45463085 0.92929959 0.62561226
-1.5380613 0.93505895 0.62123477
-1.9822706 0.94169229 0.62945414
-0.85217512 0.94111449 0.6236099
-0.057113707 0.94127667 0.62356603
-1.6511766 0.99610865 0.62345934
-1.3225965 0.99884057 0.62863702
-0.54099375 0.99316186 0.62386537
-0.36861241 0.99280006 0.62393683
-1.6326861 1.0125587 0.62180692
-1.3970695 1.012647 0.62166405
-1.1614592 1.0126467 0.62166452
-0.92584813 1.0126473 0.62166375
-0.69023824 1.0127354 0.62152112
-0.45462891 1.0127354 0.62152123
-0.21902141 1.0127347 0.62152225
0.016587913 1.0127347 0.62152237
-1.4046432 0.84122312 0.63297343
-1.6063102 0.89611834 0.63553464
-1.3790025 0.898018 0.63940406
-1.244804 0.89887309 0.63626266
-1.7723275 0.91131818 0.6367557
-1.5202885 0.91831338 0.63879669
-1.4585972 0.91737044 0.63129425
-1.0141121 0.91884506 0.63281113
-1.945709 0.94115329 0.63901818
-0.98021436 0.96675622 0.6343962
-1.6796302 0.99560308 0.63482213
-0.88529503 0.99711406 0.63429374
-0.023907602 0.9968819 0.63453513
-1.9765811 1.0119098 0.63637882
-1.6015453 1.0184801 0.63923395
-1.1848046 1.0100166 0.63682473
-0.63234562 1.0204324 0.63277411
-1.2420131 1.0339369 0.63644797
-1.8811836 0.80006737 0.64706171
-1.6434256 0.80006653 0.64706171
-1.4056656 0.80006695 0.64706171
-1.1679065 0.80006772 0.64706171
-0.93014741 0.80006868 0.64706171
-0.69238853 0.80006737 0.64706171
-0.45463043 0.80006665 0.64706171
-1.712343 0.83975935 0.64368069
-1.6873448 0.83867079 0.64972448
-1.4575524 0.839647 0.64430094
-1.4439776 0.83861393 0.64913476
-1.2040105 0.83937037 0.64491701
-1.1993421 0.83871973 0.64854193
-0.95264471 0.83904457 0.64673674
-0.70363265 0.83904314 0.64674169
-0.45462981 0.83904338 0.64674354
-0.20290489 0.83893454 0.64734542
-0.86672431 0.84138376 0.64618248
-0.042507678 0.84154642 0.64622784
-0.99714845 0.86979878 0.6488713
-0.18813464 0.86989981 0.64766997
-1.6126643 0.8720637 0.64145017
-1.3218319 0.87165219 0.64271903
-1.0340171 0.87124348 0.64397573
-0.74917525 0.87084103 0.64521945
-0.7209481 0.87019104 0.64766622
-0.46716875 0.87029594 0.64645112
-0.44191039 0.87058765 0.64644706
