# .PCD v0.7 - Point Cloud Data file format
VERSION 0.7
FIELDS x y z
SIZE 4 4 4
TYPE F F F
COUNT 1 1 1
WIDTH 1467
HEIGHT 1
VIEWPOINT 0 0 0 1 0 0 0
POINTS 1467
DATA ascii
-3.8811977 -0.78999138 2.4651921
-3.9355974 -0.96237183 2.476593
-4.4835415 -0.95915604 2.4729395
-4.4293671 -0.93848205 2.4764953
-4.1721177 -0.92698503 2.4762001
-3.201108 -0.92757261 2.4700933
-2.6865432 -0.92655504 2.4780698
-3.9440086 -0.91560674 2.476661
-3.5132093 -0.91197443 2.4705596
-4.6725254 -0.90615058 2.47645
-3.9532955 -0.89757335 2.4732475
-3.2996616 -0.89007574 2.4784608
-3.0777779 -0.89356983 2.476377
-4.5958223 -0.88051832 2.4746711
-3.9261723 -0.88660038 2.4737511
-2.9572453 -0.87486881 2.4721847
-3.7178402 -0.8620441 2.4756689
-4.7166314 -0.85923445 2.471961
-4.2647047 -0.85925996 2.479007
-4.0026989 -0.85920405 2.4792075
-3.7407095 -0.85909247 2.4796076
-3.50019 -0.85897577 2.4753201
-3.466187 -0.85684526 2.4772928
-3.0643845 -0.85808599 2.4771655
-3.9606035 -0.83819497 2.4717498
-3.5672147 -0.8343578 2.4763055
-3.4874663 -0.83128136 2.4773407
-2.8862405 -0.82656014 2.476088
-4.016489 -0.81419611 2.4760859
-3.0562506 -0.81945336 2.4764016
-3.6611221 -0.80002427 2.4710681
-2.7995319 -0.79645526 2.4788795
-3.3593435 -0.78104115 2.4711206
-3.9303951 -0.76556921 2.4783468
-3.2026255 -0.75821453 2.4767525
-3.7039578 -0.96227086 2.4839001
-4.064887 -0.95893949 2.4876235
-2.9365206 -0.93158484 2.4826231
-2.9571474 -0.91058803 2.4811645
-3.6130526 -0.90768504 2.4858255
-3.8108594 -0.89635205 2.4889004
-3.7571738 -0.89149737 2.4870558
-3.6939399 -0.89374125 2.4838905
-3.1032333 -0.87880117 2.4843602
-3.8018615 -0.86187911 2.4811521
-3.4857392 -0.86195999 2.4829712
-3.3469691 -0.86051452 2.4807944
-3.5988603 -0.85815102 2.4879575
-3.4787152 -0.85898107 2.4800069
-3.216712 -0.85886949 2.4804068
-2.954704 -0.85875791 2.4808073
-2.8988392 -0.8570832 2.4884834
-2.6926587 -0.85875791 2.4808071
-3.6734538 -0.82741034 2.4850554
-4.0748944 -0.81635463 2.4873466
-3.6721456 -0.81351423 2.4852452
-2.9736862 -0.80209708 2.4802246
-4.1262999 -0.7991007 2.4816875
-3.4931769 -0.79842651 2.4890089
-4.1475224 -0.78735983 2.4819958
-3.8686607 -0.77649629 2.4865839
-4.3501101 -0.74868417 2.4831588
-3.471211 -0.96232808 2.4912257
-3.2372885 -0.96222723 2.4986062
-2.9932003 -0.92612243 2.494133
-2.7900102 -0.91477907 2.4905193
-3.4894671 -0.90440989 2.4964805
-4.2025118 -0.89288199 2.4954221
-3.5733037 -0.89661789 2.4923191
-3.5011015 -0.89124024 2.4939413
-3.3617914 -0.89331579 2.4942122
-3.1308041 -0.8839274 2.4986513
-3.2524979 -0.86187589 2.4903111
-3.0181077 -0.86179221 2.4976869
-4.6861367 -0.85859424 2.4963675
-4.1304326 -0.85837895 2.4987555
-2.8845496 -0.85218275 2.4901171
-3.4778759 -0.84769046 2.499963
-2.9224806 -0.84303069 2.4963925
-4.4719291 -0.83860171 2.4960856
-2.6725116 -0.83349609 2.4981518
-4.6993828 -0.82937765 2.4917443
-3.1936562 -0.82605124 2.4921103
-3.3725572 -0.81185496 2.497787
-3.3222778 -0.81292439 2.4944973
-4.2958412 -0.80779612 2.4916792
-4.6000686 -0.79815817 2.492506
-3.2120299 -0.79882884 2.4937291
-3.5497997 -0.78508788 2.4984674
-3.2288263 -0.78974479 2.4984941
-2.7583463 -0.78823829 2.4900191
-3.9399641 -0.77278894 2.4963956
-4.65417 -0.96074748 2.5028739
-3.0021765 -0.96196395 2.5060396
-4.062561 -0.95661378 2.5000842
-4.391952 -0.93517303 2.5069823
-4.2676969 -0.91149747 2.5022805
-4.1163673 -0.91314614 2.5094886
-4.6361542 -0.89423037 2.5035686
-4.148375 -0.88989317 2.508203
-3.3503473 -0.88889635 2.5009782
-4.5468774 -0.86650872 2.5079186
-3.6667488 -0.86562002 2.5023999
-2.7825613 -0.86170572 2.5050964
-4.040472 -0.85907418 2.5017996
-4.2176838 -0.82899678 2.5078864
-3.5045071 -0.82568729 2.5083261
-3.3947425 -0.82303268 2.5092871
-3.6050971 -0.81139839 2.5078819
-2.9668207 -0.8123256 2.5038972
-4.4441872 -0.80653214 2.5054538
-4.0103016 -0.80534852 2.5053585
-3.686522 -0.79128945 2.5068047
-3.5027444 -0.79629052 2.5056381
-3.1931481 -0.79551959 2.5028055
-3.1413705 -0.79408413 2.5020421
-2.8751054 -0.78366256 2.5055194
-3.926151 -0.77676523 2.50056
-3.8343365 -0.76208556 2.5091162
-4.4598789 -0.75323343 2.5094576
-4.6097727 -0.95861876 2.5142872
-3.4900894 -0.95678675 2.5112109
-3.0592227 -0.95813906 2.5100629
-3.0731547 -0.93715811 2.5116377
-3.3031778 -0.92568564 2.5103712
-2.7008097 -0.92833304 2.518925
-4.2089534 -0.91630912 2.51861
-3.4146788 -0.91421962 2.5103543
-3.3565774 -0.9035058 2.5117397
-2.823524 -0.90230435 2.5167944
-3.8733726 -0.89127088 2.5127707
-3.5806003 -0.89640439 2.5103278
-3.5589552 -0.89799416 2.5169675
-4.2054968 -0.87257338 2.5197263
-4.6544251 -0.86083126 2.5163913
-2.6836669 -0.85732269 2.51934
-3.1085413 -0.81520379 2.5180712
-4.7523212 -0.80225444 2.5159254
-4.2507858 -0.80089116 2.5164757
-4.1320596 -0.79279196 2.514894
-3.9420927 -0.79364645 2.5168781
-3.869957 -0.79139209 2.5146275
-3.6130443 -0.79350126 2.5155468
-4.6092958 -0.75982368 2.5119941
-4.1537733 -0.96059906 2.52844
-3.5953441 -0.95813787 2.5208626
-2.9208388 -0.95695996 2.5222745
-3.5168195 -0.93403375 2.5291276
-3.6165311 -0.9252423 2.5267868
-4.2732 -0.89575827 2.5216062
-2.8237197 -0.89356935 2.5294223
-4.2413731 -0.87482131 2.5288308
-3.8014634 -0.87629962 2.5205832
-4.5836 -0.85901409 2.5284476
-4.4319124 -0.84764028 2.5295746
-3.9633558 -0.82271254 2.5269036
-3.8187428 -0.82532299 2.5247183
-3.730711 -0.82860947 2.5242069
-4.3366671 -0.81697607 2.5288715
-2.9417357 -0.81411219 2.5288396
-3.2579718 -0.80458617 2.5259552
-4.6248507 -0.79562515 2.5206676
-4.5659137 -0.79425597 2.5227716
-4.5293689 -0.79856527 2.5287745
-2.6816232 -0.77886695 2.5204258
-4.1285582 -0.95830095 2.5315399
-3.6018028 -0.93772233 2.5360422
-4.4887099 -0.92876101 2.5350635
-3.1064787 -0.922988 2.5387087
-4.7902985 -0.91554141 2.5325811
-4.0474253 -0.9139545 2.5302255
-3.8330643 -0.90768552 2.5317621
-3.2299705 -0.8947686 2.5355353
-3.0555182 -0.89473861 2.5347233
-4.1422257 -0.88652837 2.5339925
-3.8971798 -0.87647617 2.5389786
-4.48353 -0.85213578 2.5341742
-2.7539985 -0.84225237 2.5376506
-3.896666 -0.83473593 2.536586
-3.1234767 -0.83729553 2.5314677
-3.9772644 -0.81333309 2.5362699
-3.7347822 -0.81465077 2.5380714
-4.5156717 -0.80790657 2.5374682
-4.36693 -0.79063791 2.5326109
-3.1247737 -0.79225206 2.5341153
-3.0461388 -0.79645479 2.5303679
-4.5068197 -0.77709603 2.5370717
-4.2218332 -0.77496171 2.5310354
-3.7879615 -0.76602077 2.5334113
-3.9592059 -0.93048167 2.5490637
-3.9333143 -0.92479455 2.5433793
-3.7677436 -0.92728579 2.5434413
-4.7016373 -0.91428232 2.5472658
-4.4568815 -0.91479445 2.5419946
-4.0565305 -0.91149724 2.5463698
-4.3162136 -0.90061927 2.5438166
-3.9991765 -0.90528989 2.5421977
-3.0943582 -0.90104777 2.5476294
-4.0953083 -0.89055192 2.5423985
-3.8201933 -0.89649332 2.5440178
-3.1985095 -0.89520669 2.5483427
-4.0073352 -0.88990152 2.5422077
-4.1554694 -0.86077678 2.5419183
-4.5228119 -0.8301754 2.5440204
-4.5386806 -0.82225454 2.544796
-4.1364126 -0.8249501 2.5412884
-3.2383804 -0.82821751 2.5407066
-3.629987 -0.80463099 2.5473001
-3.1202736 -0.79487777 2.5435348
-4.3630271 -0.78728986 2.5423627
-3.5366557 -0.77887344 2.5444121
-3.6741686 -0.76556945 2.5499566
-3.447896 -0.75837612 2.5472062
-4.288074 -0.74973524 2.5404482
-3.1313825 -0.74874097 2.5446851
-3.6508014 -0.96045029 2.5541368
-3.1879187 -0.95925522 2.5511982
-4.115818 -0.92029119 2.5590932
-4.0028896 -0.92837071 2.5515437
-3.6737332 -0.92252809 2.5565777
-4.4700789 -0.91700125 2.5599546
-4.1183276 -0.91413808 2.5516043
-3.5506988 -0.90015996 2.558861
-2.9633403 -0.90254593 2.5545266
-4.7934403 -0.89956832 2.5500917
-4.5461717 -0.89272052 2.5587687
-3.1587179 -0.89331579 2.5509665
-3.5551147 -0.88691509 2.5554905
-3.6490283 -0.83785295 2.5555758
-3.0108976 -0.83388162 2.5591855
-4.4575796 -0.82457578 2.5580411
-3.2760892 -0.82786238 2.5515115
-4.3691959 -0.81393933 2.5582218
-3.3941407 -0.81139898 2.5519266
-3.1064882 -0.80858463 2.5586979
-4.4312105 -0.79629111 2.5536873
-4.1264009 -0.79126 2.5543506
-3.5787492 -0.78692663 2.5509946
-3.3504415 -0.78508806 2.5547457
-4.7473316 -0.77474171 2.5563259
-3.7246568 -0.77741718 2.5580425
-4.7147145 -0.93540323 2.5665965
-4.7063942 -0.93510807 2.5643744
-4.1210766 -0.9382751 2.5600164
-4.2535844 -0.92434311 2.5601578
-3.5117157 -0.92797279 2.5682046
-3.7743783 -0.91336703 2.5613151
-3.2286167 -0.91120136 2.5610099
-3.0787425 -0.91354954 2.5610745
-4.6446733 -0.89490461 2.5689068
-4.3757873 -0.89883351 2.566674
-3.4368241 -0.89755797 2.5664873
-2.7344301 -0.89130294 2.565057
-3.6539593 -0.86056972 2.5676014
-3.1662495 -0.85919571 2.5651093
-4.5263133 -0.83534348 2.5625734
-4.3545275 -0.82098317 2.5662746
-4.594779 -0.81748164 2.5698106
-4.8000326 -0.80204064 2.5626614
-4.2062106 -0.79831803 2.5643716
-3.3592432 -0.79337513 2.5683756
-3.3017244 -0.79490733 2.5673709
-4.182446 -0.77286839 2.5643463
-3.1452413 -0.96045756 2.5799942
-3.7275004 -0.95909834 2.5779171
-4.4680285 -0.93476701 2.5789418
-3.3129396 -0.93117106 2.5756326
-4.2477565 -0.92206466 2.5746613
-3.5679789 -0.91994059 2.5780246
-3.4249706 -0.91258359 2.5711815
-4.6316957 -0.90606081 2.5717571
-4.0530763 -0.9076848 2.5776978
-4.8150468 -0.8933413 2.5796843
-4.0152721 -0.8993749 2.5703537
-4.208416 -0.88263625 2.5746205
-2.9443793 -0.87593842 2.5791225
-3.4099181 -0.86561978 2.5741787
-4.3939376 -0.85653353 2.5785229
-4.2872334 -0.83507055 2.5771246
-4.1653099 -0.83839869 2.5792572
-3.868154 -0.83086491 2.5707526
-2.9266868 -0.831738 2.5761104
-4.7822971 -0.82419682 2.5749812
-4.3570628 -0.82680917 2.5767179
-4.6894455 -0.81223118 2.5720088
-4.5641379 -0.81465816 2.573576
-3.2197595 -0.81465793 2.5712955
-3.7693992 -0.80552602 2.5714076
-4.4251208 -0.79569012 2.576371
-4.1439042 -0.79947114 2.5786085
-3.0621355 -0.79714787 2.5734797
-3.026216 -0.7766304 2.5733814
-3.346741 -0.76836038 2.5701828
-2.8426328 -0.75423825 2.5769167
-4.6138768 -1.0001092 2.5859241
-4.3761187 -1.0001101 2.5859241
-4.1383605 -1.0001109 2.5859241
-3.9006038 -1.0001105 2.5859241
-3.6628654 -0.99994004 2.5859427
-3.4251063 -0.99993914 2.5859427
-3.1873481 -0.99993992 2.5859427
-2.9496963 -0.9987449 2.5860715
-4.6312256 -0.93882132 2.5835686
-3.8483069 -0.93441719 2.5894213
-3.0151029 -0.92757237 2.5850506
-3.070056 -0.91189408 2.581254
-4.498806 -0.90615058 2.5870109
-3.4251063 -0.90006089 2.5859427
-3.1873481 -0.90006012 2.5859427
-2.949589 -0.90006101 2.5859427
-2.7118299 -0.90006191 2.5859427
-4.4885607 -0.89845538 2.582005
-4.3761187 -0.89988989 2.5859241
-4.1383605 -0.89988917 2.5859241
-3.9006038 -0.89988953 2.5859241
-3.6628463 -0.89989132 2.5859241
-4.4987988 -0.87519646 2.5866594
-4.4485273 -0.87249255 2.5878294
-4.2385135 -0.87519693 2.5866587
-4.2209811 -0.87724042 2.5850656
-3.978204 -0.8752954 2.5864801
-3.717921 -0.87529552 2.5864801
-3.4576173 -0.87539434 2.5863006
-3.1973169 -0.87549317 2.5861213
-2.9370375 -0.87549305 2.5861216
-2.6767578 -0.87549305 2.5861216
-3.8207836 -0.85677373 2.5894918
-2.9307983 -0.85723555 2.5897219
-2.7364841 -0.85802221 2.5859914
-3.8119352 -0.82022309 2.5850151
-3.0872507 -0.81115478 2.5883176
-4.7354536 -0.80790615 2.5833566
-3.2430947 -0.80378777 2.5898857
-3.6215305 -0.79130673 2.5821366
-3.2927527 -0.79633176 2.5817075
-3.2871635 -0.78861231 2.5888934
-4.4976149 -0.77450526 2.5894573
-4.2273898 -0.93442392 2.5936484
-3.843061 -0.91200286 2.5946414
-3.0133648 -0.91958547 2.5971901
-4.2437215 -0.89801514 2.59619
-4.0670853 -0.8963685 2.5957165
-4.3582177 -0.88652885 2.5943584
-4.2257586 -0.8896277 2.5986788
-4.7196832 -0.87406665 2.5955589
-3.6880159 -0.87672293 2.595819
-3.25281 -0.87871504 2.5916519
-3.3490086 -0.86809963 2.5929639
-3.1498635 -0.86051476 2.5933914
-3.7041576 -0.85913682 2.5917833
-3.2733102 -0.85808563 2.5965147
-4.2231016 -0.83496827 2.5962481
-4.045876 -0.83479267 2.5918131
-3.2263503 -0.83154297 2.5969586
-3.1831865 -0.81139886 2.5959718
-4.7960205 -0.79235697 2.5919275
-4.2465358 -0.79002446 2.5941532
-4.0848184 -0.79009211 2.5949535
-3.8400314 -0.79960132 2.5992136
-3.5928106 -0.79804122 2.5979016
-4.1653323 -0.78300071 2.598294
-2.6180882 -0.77965963 2.5905342
-4.270021 -0.95877868 2.6047513
-3.9844427 -0.93407404 2.6084971
-3.3674641 -0.92774463 2.6099205
-4.7273874 -0.9175756 2.6007004
-3.3560071 -0.91428232 2.6033318
-3.3122461 -0.90441012 2.6092706
-4.6716347 -0.89967203 2.6094093
-3.8909504 -0.89384019 2.6094306
-3.1281745 -0.89674616 2.6019619
-4.1562524 -0.88972974 2.6004786
-3.2519703 -0.88737726 2.6066163
-2.9787788 -0.88329148 2.6031084
-2.9772565 -0.87790835 2.6059153
-3.9324245 -0.86781573 2.6074462
-3.8072186 -0.85815138 2.6069827
-3.2508016 -0.85684383 2.6003313
-4.6725616 -0.83893561 2.6025252
-3.8022699 -0.8343792 2.606626
-4.5175328 -0.82937896 2.6041327
-3.2626481 -0.81959474 2.6040914
-4.5949402 -0.80047917 2.6047397
-3.3244457 -0.80858469 2.6042051
-4.5785294 -0.78721952 2.6027303
-2.9684703 -0.78129792 2.6002486
-4.4580107 -0.96074605 2.6149297
-4.4209862 -0.95643902 2.6130238
-2.957092 -0.93340302 2.6128993
-4.2596741 -0.90526223 2.6138639
-4.4657688 -0.89255667 2.6136382
-3.9910917 -0.89982116 2.6162422
-3.7003729 -0.89131618 2.6198268
-3.28056 -0.87006247 2.6154673
-2.6527367 -0.87755299 2.6176205
-4.0997381 -0.86468291 2.6163585
-4.3382254 -0.85837799 2.6174572
-4.2449393 -0.85907555 2.6186013
-3.3461461 -0.83412015 2.6195858
-4.6379762 -0.82347429 2.6130722
-3.029624 -0.82348073 2.6134176
-2.8828983 -0.82846582 2.6173511
-4.4801712 -0.81223106 2.6157031
-3.4936008 -0.81530583 2.6131206
-4.2706828 -0.80653238 2.6158779
-4.6449733 -0.79690886 2.612608
-4.4294372 -0.79690868 2.6126082
-4.2138801 -0.79682869 2.6127224
-3.9983423 -0.79682809 2.6127234
-3.7828066 -0.79682791 2.6127236
-3.6407213 -0.79690778 2.6112771
-3.5672724 -0.79682833 2.6127229
-3.3517187 -0.79674697 2.612839
-3.1361859 -0.79674786 2.6128376
-4.5728636 -0.78728157 2.6107621
-3.8618126 -0.78402644 2.6106975
-3.2871227 -0.78808171 2.6187294
-3.1510818 -0.78508806 2.6110246
-3.1113901 -0.78063369 2.6106727
-3.5723443 -0.77493215 2.6197767
-4.2543516 -0.75207806 2.6121333
-3.6933541 -0.75837612 2.6164992
-3.1096733 -0.75749981 2.6124158
-4.0274734 -0.74970633 2.6137855
-3.8458815 -0.95661306 2.6238627
-3.2687919 -0.95813942 2.6297793
-3.7391586 -0.93372428 2.6234875
-3.2855902 -0.93737376 2.6209354
-4.2730894 -0.9076848 2.6236341
-4.4445753 -0.89483821 2.624712
-3.905633 -0.89943433 2.6270249
-4.5526099 -0.88658905 2.6264715
-3.8384926 -0.88372135 2.6268713
-3.5552752 -0.88075137 2.6249528
-3.0846903 -0.88065171 2.6273339
-4.4305978 -0.87444019 2.6241877
-3.4901242 -0.87400115 2.6256742
-4.4588299 -0.86083037 2.6281257
-2.7430823 -0.86475801 2.6278651
-2.6631143 -0.86446428 2.6296945
-4.7090616 -0.85005003 2.625587
-4.1744289 -0.856659 2.6288083
-2.9145844 -0.85344231 2.6222358
-3.5562568 -0.83409643 2.6215982
-4.7535272 -0.82026982 2.6297634
-4.0348444 -0.82899678 2.6208873
-4.567214 -0.81542921 2.623538
-3.7008622 -0.81265628 2.6257231
-2.7066147 -0.81881607 2.6232955
-4.5800877 -0.80193472 2.6236951
-3.7650886 -0.80036151 2.6275856
-3.6974857 -0.7913034 2.6214948
-3.1054902 -0.79337561 2.621357
-3.3476064 -0.77833867 2.6200747
-3.2895205 -0.77879316 2.627758
-3.4179397 -0.76556897 2.6215656
-4.1153302 -0.75715172 2.622817
-3.2740221 -0.95678675 2.6346395
-4.8309598 -0.93457627 2.6368694
-4.6061239 -0.93457699 2.6368699
-4.3812871 -0.93457675 2.6368697
-4.1564322 -0.93471479 2.6369352
-3.9315953 -0.93471456 2.636935
-3.7067614 -0.93471456 2.636935
-3.4915004 -0.93337071 2.6386228
-3.4819245 -0.93471408 2.6369348
-3.2570925 -0.93471503 2.6369352
-3.0322556 -0.93471456 2.636935
-4.7872963 -0.92914891 2.6312268
-4.4562998 -0.92651892 2.6361985
-2.8623409 -0.92908841 2.6357694
-4.4345198 -0.9136622 2.6355479
-3.6341963 -0.91149747 2.6345487
-2.6994894 -0.9192977 2.6359155
-4.3522964 -0.88979006 2.6381569
-3.5565975 -0.88868833 2.6325946
-4.7684584 -0.8599894 2.6344767
-4.3156486 -0.8520273 2.6326582
-3.1649957 -0.85619307 2.6324589
-3.3078642 -0.83381069 2.6367164
-3.5927339 -0.82316601 2.6315446
-3.5468712 -0.82860923 2.6378262
-4.2323933 -0.81486702 2.6336467
-3.0809717 -0.80458641 2.6386039
-2.8493724 -0.80293 2.6332226
-4.2254028 -0.7956906 2.6321864
-4.1281986 -0.79034209 2.6311183
-3.5393579 -0.79633224 2.6331964
-4.4249306 -0.77294701 2.6322961
-3.3520436 -0.77080417 2.6387634
-4.003746 -0.76881433 2.6311402
-3.9571111 -0.96059954 2.6407838
-3.8043423 -0.95813799 2.6402535
-2.7053788 -0.95695949 2.6453567
-4.3464127 -0.9300555 2.6438065
-4.1766877 -0.93479681 2.6491489
-3.8100431 -0.93806791 2.6442807
-4.3057466 -0.92876148 2.6481419
-3.6291871 -0.91500449 2.6449656
-3.19454 -0.91421962 2.6464074
-4.3154039 -0.89750177 2.6472468
-3.6777413 -0.89641583 2.6436524
-3.4935336 -0.86360395 2.6423905
-3.1530845 -0.86561978 2.6459579
-4.7886162 -0.85901457 2.6455631
-3.3346703 -0.83750761 2.6401491
-4.3466105 -0.82724273 2.6427364
-4.1624517 -0.82271361 2.649951
-4.0958385 -0.82724369 2.6427369
-3.9518814 -0.82711124 2.6433282
-3.8450642 -0.82724178 2.642736
-3.5942707 -0.82708824 2.6426229
-3.3434987 -0.82708895 2.6426234
-3.0927267 -0.82708967 2.6426239
-2.8419557 -0.82708991 2.6426244
-3.8924165 -0.81419683 2.6439614
-4.519762 -0.80616331 2.6478379
-3.5424051 -0.80858421 2.6497133
-4.2396317 -0.79916859 2.6424603
-4.1389189 -0.79364526 2.6421475
-3.5127528 -0.78096873 2.6490393
-4.336987 -0.95830131 2.6506047
-3.2414331 -0.93301141 2.6539063
-4.797945 -0.91490352 2.6582367
-2.9396996 -0.91053313 2.6528237
-4.6451235 -0.90192032 2.6508379
-3.8811922 -0.90444905 2.6567035
-3.8237221 -0.90528965 2.653863
-4.8004761 -0.89242661 2.6535501
-3.2502604 -0.89493418 2.658967
-2.8492489 -0.89229417 2.6576285
-4.574151 -0.88660014 2.6548455
-4.4407191 -0.87476873 2.6518486
-3.2804401 -0.87819272 2.6538143
-3.9593725 -0.86077785 2.6539383
-3.1780012 -0.85720658 2.6597123
-3.0570581 -0.83352286 2.6519794
-3.0535274 -0.8282187 2.6549511
-4.270896 -0.81223035 2.6593986
-3.7635307 -0.81583393 2.6543403
-3.5470271 -0.81361723 2.6543894
-2.8900146 -0.81520307 2.6531274
-4.7622066 -0.80743456 2.6595619
-3.3473256 -0.80093241 2.6541538
-3.0583768 -0.79539108 2.6596584
-4.4206605 -0.77506357 2.6535487
-3.4245927 -0.76468384 2.6568327
-2.777935 -0.76479542 2.6553364
-4.2254829 -0.75299466 2.6532869
-3.4536312 -0.96045125 2.6667709
-3.3919077 -0.95925546 2.6677275
-4.3251877 -0.93861794 2.6671929
-3.6930964 -0.93075109 2.6695642
-2.9889941 -0.93278921 2.6693201
-3.8189232 -0.92836905 2.6652398
-3.3045478 -0.92298859 2.6611223
-3.8258371 -0.91395497 2.6671743
-4.4931488 -0.9075743 2.6694729
-3.6131866 -0.90066302 2.6649442
-4.2092295 -0.89255691 2.6672006
-3.2596686 -0.8787263 2.6657848
-2.8541811 -0.86490965 2.664336
-4.5411229 -0.85088515 2.6617653
-3.1156392 -0.85964465 2.6696382
-4.2527347 -0.8305968 2.6650701
-3.8560231 -0.83805847 2.6631866
-2.8038025 -0.83323216 2.6673937
-4.7390437 -0.8223905 2.6685128
-4.2961578 -0.81411237 2.6620109
-3.1962404 -0.81292486 2.6650317
-3.8054399 -0.80002356 2.6663387
-4.6264925 -0.79956555 2.6689162
-4.7940288 -0.78715026 2.6630945
-4.1344328 -0.7727921 2.667511
-3.1485639 -0.95973903 2.6789784
-2.8857408 -0.9598524 2.6706872
-4.8476586 -0.93963659 2.6775184
-3.2943864 -0.93379265 2.6733665
-3.8729753 -0.92252964 2.6797173
-2.9713223 -0.92819762 2.6757131
-3.4230301 -0.91149724 2.678638
-3.8232996 -0.89666569 2.6723108
-3.0243411 -0.89301389 2.6712959
-4.6828265 -0.87621754 2.6791432
-4.0518441 -0.87240076 2.6735687
-2.8793864 -0.87872565 2.6771507
-3.4573593 -0.860569 2.6799095
-4.2481394 -0.85244524 2.6783528
-3.3790462 -0.85971892 2.6779461
-3.6782396 -0.83435798 2.6794176
-3.5148258 -0.81465077 2.6740119
-3.3926086 -0.80110919 2.6757298
-4.2720675 -0.79921973 2.6786885
-4.2311211 -0.79057688 2.6751914
-2.8517361 -0.79337513 2.6743376
-4.4911637 -0.77594829 2.6727407
-4.2313552 -0.77594852 2.6727409
-3.971525 -0.77585149 2.6725616
-3.7116964 -0.77575397 2.6723809
-3.4518919 -0.77575397 2.6723809
-3.1920676 -0.77565658 2.6722007
-2.9322662 -0.77565658 2.6722007
-2.6724629 -0.77565658 2.6722007
-3.0504584 -0.76175731 2.6747816
-4.6237693 -0.96267414 2.6825585
-3.4127641 -0.95962179 2.687315
-4.8313169 -0.93915558 2.6897035
-4.3211212 -0.92015105 2.6861012
-3.3267355 -0.92797208 2.682528
-4.4655881 -0.91353488 2.6883311
-3.8983715 -0.91571665 2.6859891
-3.5608444 -0.91174352 2.6895652
-3.0826902 -0.90842819 2.6896267
-4.7455106 -0.892721 2.685636
-4.6457958 -0.89342988 2.6845477
-4.2444906 -0.89483774 2.6806302
-3.9530716 -0.89741468 2.6860075
-3.3801408 -0.88991266 2.6898913
-2.9110551 -0.88844836 2.6839879
-4.4073844 -0.8622942 2.6815777
-4.1786547 -0.86221063 2.6893287
-3.6239579 -0.86187911 2.6877453
-3.1037593 -0.86114252 2.6807723
-3.6436911 -0.85945493 2.686255
-3.3696306 -0.85919571 2.6812909
-4.368216 -0.83860254 2.6858203
-2.8014324 -0.81728184 2.6839108
-2.7974195 -0.81056249 2.6802981
-3.5941665 -0.80552506 2.6829336
-4.6403913 -0.79387975 2.6859081
-4.0256891 -0.79569 2.6880031
-3.8755982 -0.79782534 2.6811061
-3.7859588 -0.79645598 2.6848359
-3.4187057 -0.79842627 2.6839786
-4.6450796 -0.78935957 2.6810887
-3.1044641 -0.78910238 2.6800108
-4.2795324 -0.77720904 2.6819501
-4.0848637 -0.77676535 2.6848662
-3.31216 -0.77887297 2.6872885
-3.9388111 -0.75837624 2.6857922
-3.7668025 -0.74964947 2.6869178
-4.3954949 -0.96257436 2.6903138
-4.1661067 -0.96247232 2.6981082
-3.932081 -0.95893806 2.6947305
-3.6783504 -0.95950633 2.6956911
-3.0526152 -0.9314335 2.6948161
-4.4482651 -0.92192709 2.6984687
-4.7193942 -0.9120748 2.6977296
-4.6679506 -0.9154408 2.6979895
-4.3250871 -0.90615082 2.6975722
-4.6515384 -0.89667284 2.6935878
-4.5608792 -0.896245 2.6989646
-4.4356751 -0.89667213 2.6935868
-4.2198091 -0.89667237 2.6935871
-4.0039258 -0.89675438 2.6937022
-3.8366821 -0.89141667 2.695569
-3.7880599 -0.89675438 2.6937022
-3.5721972 -0.89675462 2.6937027
-3.3563178 -0.89683664 2.6938176
-3.140455 -0.89683688 2.6938181
-3.0947692 -0.8947686 2.6925395
-3.9488084 -0.86212879 2.6971188
-3.9097948 -0.85935736 2.6946297
-3.2886038 -0.84769046 2.6979749
-4.8072019 -0.83528298 2.6987429
-4.583529 -0.83514476 2.6988087
-4.3598828 -0.83514541 2.6988084
-4.1362371 -0.83514458 2.6988089
-3.912569 -0.83500892 2.698873
-3.6889238 -0.83500814 2.6988735
-3.6039681 -0.83128041 2.6904745
-3.4652772 -0.83500874 2.6988733
-3.2416153 -0.83487064 2.6989391
-4.147789 -0.81393957 2.6950588
-4.0295448 -0.81635463 2.6949615
-4.1471767 -0.80534756 2.6905558
-3.7603626 -0.80858427 2.6952205
-4.7473164 -0.79839998 2.6912665
-3.4962804 -0.79480994 2.6913471
-3.5557272 -0.76846755 2.6997542
-3.1617785 -0.76565278 2.6933627
-4.7606926 -0.96089339 2.7009788
-3.9355977 -0.96237314 2.7059388
-3.9453347 -0.95939028 2.7041163
-4.502007 -0.93517363 2.7083199
-4.0483112 -0.92682457 2.702955
-4.3336496 -0.91479373 2.7087324
-3.7745395 -0.91979957 2.7058129
-3.4960799 -0.90362084 2.7002938
-3.0150969 -0.90807778 2.703923
-4.7135801 -0.89415216 2.7066045
-4.6642179 -0.89969277 2.7004647
-4.2809658 -0.89280283 2.7011614
-3.3438966 -0.89110982 2.7069311
2.6766067 -0.88993597 2.7078683
-3.7178397 -0.86204547 2.7049446
-4.1773548 -0.85798061 2.7026606
-3.9080827 -0.85913581 2.708276
-2.9459808 -0.85802186 2.7056665
-2.8298926 -0.85939932 2.7086005
-2.7851264 -0.83349442 2.7041707
-3.5509076 -0.82740986 2.7092452
-4.6300344 -0.81331319 2.7076459
-4.0616226 -0.81212652 2.7031851
-4.178246 -0.8008182 2.7066755
-3.9803994 -0.79724026 2.7039371
-3.3091669 -0.78990501 2.7095635
-2.8399105 -0.78832078 2.7039435
-2.8375885 -0.77886635 2.7015407
-3.9550605 -0.76609498 2.7074721
-3.7039585 -0.96227252 2.713809
-4.213728 -0.95927322 2.7125831
-3.9940658 -0.91403461 2.7195945
-4.7131596 -0.90757358 2.7154081
-3.241751 -0.90149021 2.7128139
-3.484472 -0.89806998 2.712275
-3.0021758 -0.89843476 2.7141492
-4.7900782 -0.88667178 2.7153313
-4.760643 -0.86088467 2.7138939
-3.4857388 -0.86196113 2.71281
-2.896317 -0.86553407 2.7179241
-4.4462919 -0.85933328 2.7115273
-3.6047916 -0.85677373 2.7128773
-3.4822373 -0.85808682 2.7158649
-4.3356829 -0.82937777 2.7165232
-4.0171108 -0.82022333 2.7118213
-3.4202387 -0.81196868 2.7165413
-4.8255949 -0.79747117 2.7173231
-4.0753484 -0.79819405 2.71666
-3.7658963 -0.79136872 2.7149663
-2.6789713 -0.78730577 2.7156725
-4.714159 -0.77068567 2.7167492
-3.6570268 -0.76216865 2.7153356
-4.2618494 -0.96074629 2.7269869
-3.4711807 -0.96216983 2.7217178
-3.2372563 -0.9620679 2.7296653
-4.4835415 -0.95915532 2.7210946
-4.4751039 -0.95877844 2.721905
-3.496177 -0.9377228 2.7292776
-4.1635132 -0.91472536 2.7257881
-3.2211626 -0.91930038 2.725877
-3.2118616 -0.91149795 2.7227287
-2.6975255 -0.91116345 2.7286849
-3.1350234 -0.90440941 2.7220607
-4.0041604 -0.89055169 2.7206683
-3.9526372 -0.89268661 2.7206078
-3.5803707 -0.89624381 2.7257376
-3.5273759 -0.89136171 2.726882
-2.7800612 -0.89566338 2.7298992
-4.0563846 -0.8763994 2.723608
-3.1715927 -0.87790811 2.7260211
-3.5586903 -0.86798877 2.7229669
-3.2524977 -0.86187649 2.7207131
-3.0181079 -0.86179173 2.7286568
-4.7166319 -0.85923517 2.7200336
-4.0155711 -0.85831517 2.7260728
-3.425236 -0.85720682 2.7295051
-3.0354166 -0.85684478 2.7233703
-2.9517834 -0.84062213 2.7256205
-3.0174353 -0.83729637 2.725462
-4.0971789 -0.80653286 2.7263014
-3.026587 -0.80197072 2.7230506
-4.2883902 -0.79029405 2.7248554
-4.210382 -0.79287028 2.7202909
-3.5249031 -0.79130375 2.7281554
-3.5025132 -0.79644895 2.7207136
-3.4931107 -0.78881752 2.7203183
-3.9591091 -0.77649605 2.7233808
-3.1558113 -0.77801907 2.7275686
-4.2036934 -0.95643878 2.7371523
-2.9404392 -0.95797384 2.7393582
-3.6284914 -0.93417978 2.7332625
-3.6492095 -0.91336775 2.7306767
-4.2435603 -0.90069222 2.734309
-3.3008752 -0.90842795 2.7351811
-4.0879583 -0.89393854 2.7349689
-4.0444088 -0.89483869 2.7365503
-2.9372394 -0.89680171 2.7338271
-3.0972099 -0.88832253 2.7315807
-3.99332 -0.87712574 2.7301817
-3.0279551 -0.87871432 2.7347593
-4.2632322 -0.86083013 2.739861
-2.7825613 -0.86170483 2.7366366
-4.4494076 -0.85907555 2.735404
-4.3671513 -0.84807694 2.7356391
-4.0071726 -0.8347348 2.738749
-4.6420341 -0.82650566 2.7371423
-3.8520045 -0.8289963 2.7338889
-3.2263861 -0.82347995 2.7350242
-4.2917271 -0.81686759 2.7349987
-3.4690843 -0.81959462 2.7316756
-3.7681277 -0.80451739 2.7340131
-4.03407 -0.7938574 2.7341585
-4.6073494 -0.78505808 2.7327685
-3.3166084 -0.78903365 2.7394338
-2.8804662 -0.76599634 2.7334886
-4.2238059 -0.74868417 2.7301931
-3.6292036 -0.95661378 2.7476399
-3.4783599 -0.95813906 2.7494955
2.9606791 -0.95678282 2.7475715
-4.6053238 -0.92914891 2.7436919
-2.9931998 -0.92612338 2.7440567
-4.5099096 -0.91207528 2.741468
-3.29881 -0.91258383 2.7418845
-4.8166809 -0.90708208 2.7405095
-3.2375417 -0.90104824 2.7413647
-3.1041625 -0.90277874 2.7446537
-4.1126194 -0.89814115 2.748755
-4.3595695 -0.88270915 2.7499282
-4.0194964 -0.88975126 2.7437179
-3.0517733 -0.87859607 2.7474871
-4.6323104 -0.84624022 2.7441175
-3.5439327 -0.83785141 2.7478428
-3.1936557 -0.82605052 2.7418633
-4.6170459 -0.81396723 2.7422047
-3.8523486 -0.81212676 2.7468791
-2.8951244 -0.81400126 2.7426624
-3.9783659 -0.80869341 2.7406311
-3.8259733 -0.79569 2.743819
-3.1572738 -0.79896092 2.7451246
-2.9691682 -0.79225254 2.744658
-4.7255096 -0.75960672 2.7414346
-2.9436104 -0.74874061 2.7411244
-3.760447 -0.96059859 2.7531281
-4.0133395 -0.95813918 2.7596426
-3.058027 -0.95809984 2.7575645
-4.016387 -0.93827534 2.751539
-4.370574 -0.92647398 2.7502398
-4.1183033 -0.92647493 2.7502394
-3.8660102 -0.9266299 2.7501254
-3.61374 -0.92663109 2.7501247
-3.3614712 -0.92662895 2.7501259
-3.109201 -0.92663014 2.7501252
-2.8569164 -0.92678559 2.750011
-4.7480383 -0.91428232 2.7596941
-3.6951818 -0.90015972 2.7543545
-2.8764827 -0.90243179 2.7598791
-3.84829 -0.89003241 2.7571154
-2.950819 -0.88756067 2.7597988
3.1806314 -0.88924408 2.7577462
-3.8920844 -0.87630057 2.7578368
-4.7518063 -0.8533597 2.7599659
2.6781144 -0.83685267 2.7543361
-3.7906575 -0.82316709 2.7538669
-3.5045071 -0.82568729 2.7594304
-3.3630314 -0.82860851 2.7514462
2.8362608 -0.8259939 2.7594714
-4.024231 -0.81344694 2.7517376
-2.9142866 -0.81895757 2.7517755
-3.5454504 -0.78696591 2.7566967
-3.8270991 -0.77737916 2.7580812
-4.1842432 -0.758403 2.7552791
-4.5454149 -0.95830131 2.7696695
-4.0769439 -0.93048251 2.7644577
-4.1227827 -0.92876005 2.7612185
-3.6444759 -0.92728817 2.7689481
-3.3031783 -0.92568493 2.7616477
-2.9396889 -0.92344201 2.7644386
2.6348155 -0.92553031 2.7616668
2.9761028 -0.92712629 2.7690148
-4.4250154 -0.91700077 2.7662601
-3.6482704 -0.90528989 2.7655268
-4.1612053 -0.89925438 2.7675805
-3.1982718 -0.89504397 2.7664676
-4.5563183 -0.88989347 2.767832
-3.762908 -0.88858449 2.7640734
-3.5217042 -0.88687408 2.7618685
-3.7632747 -0.8607778 2.7659593
-4.6411695 -0.83032793 2.7603326
-4.0611391 -0.83839953 2.769829
-3.1229777 -0.83388162 2.7642281
3.0400548 -0.81545603 2.7619019
-4.5903997 -0.80743432 2.7689061
-4.4921141 -0.79243565 2.76002
-4.3356485 -0.79354811 2.7675087
-3.5079343 -0.7967819 2.7658126
-3.1200359 -0.79503775 2.7613168
-2.905549 -0.76565182 2.7649708
-3.5061357 -0.74959219 2.7600448
-3.2564621 -0.96045125 2.7794037
-4.5274553 -0.93882012 2.7734077
-3.6349566 -0.92836976 2.7789383
-3.6165311 -0.9252423 2.7794294
-3.0321794 -0.91377485 2.7751048
-3.6961479 -0.89255595 2.7743278
-4.6401749 -0.87466383 2.7747495
-2.8212986 -0.85397315 2.7729785
-4.3049884 -0.84764028 2.7778203
-4.6043501 -0.82588071 2.7722054
-4.3616247 -0.82284832 2.7729352
-3.8187418 -0.82532132 2.7771869
-3.1541743 -0.82786238 2.7745464
-4.5500784 -0.81748164 2.7744582
-3.3824461 -0.80367404 2.7782338
-2.986604 -0.7972225 2.7709115
-4.3161702 -0.7829293 2.7732348
-2.6786301 -0.78001475 2.7742434
-4.6195993 -0.77521598 2.7759483
-4.5717769 -0.75960755 2.778028
-3.5959444 -0.95909524 2.7842321
-4.7063942 -0.93510759 2.7836103
-3.4295149 -0.93117046 2.788898
-3.5026162 -0.92298752 2.7835345
-4.3004265 -0.91207504 2.7852056
-3.27671 -0.91108489 2.781662
-2.9744017 -0.91421986 2.7824605
-3.5190597 -0.90842938 2.7807372
-4.6359777 -0.89821106 2.7809968
-4.4764452 -0.89343011 2.7892125
-4.2167492 -0.89575779 2.780046
-3.4450874 -0.89503229 2.783114
-3.0292995 -0.89566219 2.7819388
-3.0451214 -0.88650715 2.7822604
3.1918402 -0.87970972 2.7845235
-4.5263729 -0.83521044 2.7816625
-3.9853344 -0.83101612 2.7849205
3.3168573 -0.8310166 2.7849195
-4.6104126 -0.81476861 2.7858477
-4.4450469 -0.81542945 2.788836
-3.1734927 -0.8145467 2.7835324
-4.1963253 -0.80869299 2.7861392
-4.584271 -0.79856598 2.780118
-4.2791681 -0.79657865 2.7879634
2.7111433 -0.79222095 2.7859614
-4.4680281 -0.93476653 2.7992182
-3.9594505 -0.93456131 2.7925954
-3.9333148 -0.92479408 2.7974052
-3.1417563 -0.92797303 2.7968524
-4.39677 -0.90537602 2.79917
-3.8443058 -0.89477277 2.7923577
-3.5447075 -0.89654374 2.7984729
-3.0525203 -0.89666927 2.7997105
-4.1932077 -0.88958788 2.7997801
-3.3097687 -0.88839382 2.791122
-3.1584072 -0.88744932 2.7901525
-3.7907438 -0.87672281 2.7967415
-2.881614 -0.87031245 2.7908764
-4.2674332 -0.86470944 2.792052
-3.2607594 -0.86056828 2.7922177
2.4556334 -0.86623651 2.793752
-3.6724718 -0.85720682 2.7992997
-3.5730124 -0.85919595 2.7974727
2.9045808 -0.85935676 2.7974467
3.0076845 -0.84589267 2.7900743
-4.5693026 -0.83893561 2.7914305
-4.3330927 -0.83496845 2.7974696
-4.2872953 -0.83493561 2.7972522
-4.1364136 -0.82495105 2.7951407
-3.6430738 -0.8121264 2.7905736
-3.4188838 -0.80561256 2.7943733
-4.4714942 -0.79387951 2.7902932
-4.2142072 -0.7900247 2.7946203
-3.7663851 -0.79967439 2.7917247
-3.6262553 -0.79569048 2.7996345
-3.464386 -0.79130626 2.7947605
-3.5287478 -0.78896427 2.7988563
3.1210728 -0.78990442 2.7978776
-3.9909725 -0.75269532 2.7969229
-4.0722938 -0.92239356 2.8027928
-4.6826453 -0.91757464 2.8055305
-3.60425 -0.91395426 2.8041234
-2.8075366 -0.9108662 2.809799
2.9356952 -0.91410661 2.8040071
-4.15137 -0.90615129 2.8081322
-4.3628554 -0.88893425 2.8083105
-3.7089133 -0.88075137 2.8033674
3.6946607 -0.88866854 2.8085246
-3.2621734 -0.87862068 2.8070316
3.0369678 -0.86862588 2.8032737
-4.1045303 -0.84810793 2.8095441
2.9555445 -0.84938908 2.8068895
-3.3423758 -0.83169186 2.8090243
2.6738977 -0.83169079 2.8090236
-4.2332315 -0.82681036 2.8032603
3.3765061 -0.82283115 2.8033094
-4.1092815 -0.81486678 2.8002238
-3.2948666 -0.81465054 2.8099542
-3.1352015 -0.81138515 2.808799
-3.1937857 -0.7880466 2.8015547
-3.0204554 -0.78880119 2.808574
-3.4454832 -0.77879238 2.8088741
2.7776854 -0.77916062 2.8084674
-4.565032 -0.96073878 2.8127244
-4.1366186 -0.95893782 2.811573
-4.2273893 -0.93442273 2.8149757
-3.1794882 -0.93737209 2.8150392
-3.0697734 -0.93340373 2.8190405
-4.5264544 -0.9201507 2.8130047
-4.2535849 -0.92434263 2.8155804
-3.8880367 -0.91227937 2.8161693
-3.3096967 -0.91439426 2.815767
-4.6716347 -0.89967227 2.8170323
-4.4305973 -0.89896458 2.8183014
-3.8318725 -0.89935958 2.8198359
-4.5359602 -0.85646141 2.8157294
-4.0459394 -0.83465749 2.8129907
-4.6332817 -0.82975733 2.8111262
-4.4575801 -0.82457697 2.8132906
-3.7683468 -0.81419539 2.8118367
-4.5949397 -0.80047965 2.8120527
-4.5082369 -0.80200624 2.8115234
-4.4973502 -0.79956579 2.8188839
-4.3748231 -0.7962904 2.8118336
-4.2358322 -0.79230881 2.8133616
-4.0949035 -0.79061741 2.8173664
-3.6909275 -0.79481059 2.8152263
3.0227258 -0.79510093 2.8149436
-4.6064005 -0.78716326 2.81636
-4.8516607 -0.99994016 2.8237019
-4.6139016 -0.99993908 2.8237019
-4.3761425 -0.99993837 2.8237019
-4.1383853 -0.99994075 2.8237019
-3.9006259 -0.99993986 2.8237019
-3.6628654 -0.99994004 2.8237019
-3.4251063 -0.99993914 2.8237019
-3.1873481 -0.99993992 2.8237019
-4.6487775 -0.92178929 2.8222785
-4.2425299 -0.91353464 2.8261888
-4.0909424 -0.91207552 2.8289442
3.5741382 -0.91338062 2.8263054
-4.3761425 -0.90006167 2.8237019
-4.1383853 -0.90005928 2.8237019
-3.9006259 -0.90006018 2.8237019
-3.7372446 -0.90842915 2.8262916
-3.6628654 -0.90006 2.8237019
-3.4251063 -0.90006089 2.8237019
-3.1873481 -0.90006012 2.8237019
-2.949589 -0.90006101 2.8237019
-2.7118299 -0.90006191 2.8237019
-4.7152066 -0.89358604 2.8285115
-3.4396086 -0.89255595 2.8278904
-3.3813734 -0.89755845 2.8203447
2.7126014 -0.89782655 2.8202438
2.7713265 -0.89203978 2.8285162
-4.5655432 -0.86088425 2.825345
-4.1120052 -0.85913569 2.8247671
-4.0127621 -0.85275578 2.8225188
-3.9607344 -0.856534 2.8259909
-3.1554785 -0.8580209 2.8253417
3.4435275 -0.85913485 2.8247666
-4.7263393 -0.83380461 2.824856
-3.8022699 -0.83437955 2.8288798
-3.4576964 -0.83412182 2.8236609
2.8388066 -0.8329947 2.8285747
3.1543524 -0.83625835 2.8296871
-4.7139168 -0.82144058 2.8233361
-4.1538329 -0.82937932 2.8289113
-3.4477625 -0.81508541 2.8238006
-3.4219813 -0.81361675 2.8235841
-2.9899559 -0.8028143 2.8232315
-4.1981788 -0.79934192 2.8277736
3.5298517 -0.79947186 2.8277667
-3.8954964 -0.7841478 2.8220642
-3.6661603 -0.78089631 2.8269558
-3.1458564 -0.78079963 2.8279135
-4.5898271 -0.7746892 2.8298676
-4.0522404 -0.77732134 2.8268294
-3.0267427 -0.77691352 2.8299689
-3.7647188 -0.76857495 2.82933
2.5947545 -0.76394534 2.8234768
-4.4297018 -0.758403 2.8245721
-4.0656905 -0.960747 2.8390431
-4.6801877 -0.95877975 2.8390596
-3.9844441 -0.93407619 2.8308825
-3.7048886 -0.93806934 2.8366551
-4.9008198 -0.92494512 2.836041
-4.5773993 -0.92388606 2.8339581
-3.2448375 -0.92774558 2.8342557
2.5764611 -0.92758512 2.8343217
-3.9811034 -0.91965711 2.8336048
-4.5732574 -0.9019196 2.8389816
-3.354264 -0.89131594 2.8337338
-3.278527 -0.89553678 2.8341289
-4.5861359 -0.88667059 2.8327818
-3.8722906 -0.88359618 2.8389485
-4.7857189 -0.87667406 2.8336744
-2.9447293 -0.87574649 2.8361692
-3.6911631 -0.85808694 2.8352139
-3.3887992 -0.85677445 2.8362637
3.3511453 -0.84934294 2.8326218
-3.2291038 -0.83750772 2.8332756
-4.7822981 -0.82419777 2.8316417
-4.2222877 -0.82022345 2.8386276
3.7355564 -0.82342267 2.8327668
-3.926383 -0.81393838 2.8318944
-3.4337997 -0.81212628 2.8342681
-3.0702028 -0.81292534 2.835566
-4.4142852 -0.80869275 2.8316472
-3.9236755 -0.80653191 2.8367267
-3.0392351 -0.80193961 2.8339272
3.3212142 -0.80039227 2.8319936
-4.7435336 -0.79413223 2.8392508
-4.5257759 -0.79657793 2.8394518
-3.3522644 -0.79134774 2.8347163
-3.0876663 -0.77887392 2.8301659
-2.9571629 -0.77494085 2.8393154
-2.8610826 -0.77073753 2.8362296
-3.2454798 -0.74953562 2.8331747
-3.7392244 -0.93386126 2.8469257
-4.4811821 -0.91354907 2.8496051
-4.6446638 -0.90708232 2.849988
-4.0194802 -0.90456325 2.8436184
-3.6442406 -0.89483845 2.8483872
-3.1194115 -0.88052273 2.8452857
-3.4159708 -0.87872612 2.8472924
-3.3660271 -0.87785721 2.8460138
-4.2239304 -0.85831445 2.8450978
-2.8200319 -0.8568455 2.8464096
3.1412005 -0.84400272 2.849174
-3.5562572 -0.8340956 2.8449206
-3.6691651 -0.8289963 2.84689
-3.7481835 -0.81277025 2.842823
-3.4904699 -0.80105036 2.8476157
2.8219926 -0.80104965 2.8476162
-3.9694893 -0.79034448 2.8458641
-2.8874171 -0.78740907 2.8485155
-3.3496513 -0.7780689 2.847193
2.6808758 -0.77791977 2.8475332
-3.1505833 -0.95797515 2.8594027
3.8950095 -0.95643425 2.8510184
-4.2872581 -0.93479764 2.8514295
-4.2209606 -0.93861818 2.8578687
-4.4233489 -0.92914867 2.8561583
-4.875864 -0.91617799 2.8516529
-3.5832167 -0.91511595 2.855835
-3.4290006 -0.91915751 2.8544588
-4.5349221 -0.89975524 2.8507686
-4.316608 -0.89847791 2.8574071
-3.5223789 -0.88839334 2.8505406
-3.1291158 -0.87039417 2.8598602
-3.0356901 -0.87872612 2.8586588
-4.5076342 -0.86559272 2.8560624
-4.0676355 -0.86083031 2.8515959
-3.7684443 -0.86793333 2.8528085
3.1666694 -0.86820662 2.8598971
3.8382163 -0.86608875 2.8556423
-4.6538749 -0.85907543 2.8522062
-3.7513914 -0.83805919 2.8546023
-3.4231503 -0.82348007 2.856631
2.7548108 -0.82374763 2.856503
-4.7185545 -0.8128432 2.8520513
-4.5662718 -0.81321955 2.8541267
-3.6755202 -0.8195945 2.8592601
-4.4920664 -0.79029453 2.8544827
-4.2395234 -0.7992456 2.8523035
-3.5375719 -0.79817474 2.8515255
-3.4265597 -0.79562539 2.8555617
2.8687975 -0.79790974 2.8514264
3.9967499 -0.79295731 2.855654
-3.7408838 -0.78889531 2.8582778
-3.6991174 -0.78892022 2.8516049
-3.436856 -0.7784282 2.8532629
2.7683773 -0.77842724 2.8532634
-3.5637839 -0.96059954 2.8654723
-3.9864001 -0.95643854 2.8612814
-3.6879215 -0.9579742 2.8692782
3.3178735 -0.95661092 2.8612113
-4.4647384 -0.93005633 2.8602765
-3.4915676 -0.93350756 2.8631434
-4.331841 -0.92635632 2.8641534
3.6632566 -0.92651665 2.8640866
-4.5456667 -0.91544127 2.8634467
-4.2850604 -0.89393961 2.8604136
-4.0455742 -0.89982134 2.8656697
-2.6934521 -0.89229417 2.8684292
3.3772454 -0.89969057 2.8656635
4.2192802 -0.8879478 2.8604412
-4.5229864 -0.87425423 2.8650677
-3.4726892 -0.87859631 2.866313
-3.8358707 -0.86781526 2.8602295
-3.6069136 -0.8636477 2.8645456
-3.1857336 -0.86996651 2.8642614
2.9366808 -0.86408651 2.8651273
-3.9197083 -0.85720664 2.8690953
-2.7926385 -0.85339504 2.8612111
-3.3078644 -0.83381051 2.8611188
-3.8286972 -0.82711244 2.8686862
-3.1791902 -0.82860911 2.8650658
3.1603236 -0.82726932 2.8687518
-3.7179379 -0.81572378 2.8634765
-3.9500089 -0.80026132 2.8614984
3.2814064 -0.80014211 2.8615541
3.802809 -0.80675113 2.8674612
-3.9796038 -0.79230905 2.8668599
-3.9444892 -0.79807055 2.8689437
-3.060329 -0.79604435 2.8618991
3.7112064 -0.78784418 2.8685377
-4.2431464 -0.7765404 2.8694208
-2.7999043 -0.77377021 2.8610387
3.5755291 -0.77699029 2.8689272
-4.2223377 -0.95813751 2.8790336
-3.412523 -0.95661426 2.8714187
-3.2615499 -0.95941228 2.8732834
2.7440021 -0.95678377 2.8713479
-4.7279568 -0.93902206 2.8786926
-3.406533 -0.93379325 2.8785303
-3.2415028 -0.93315065 2.8795171
-3.9398458 -0.92888641 2.874357
-4.2104211 -0.91479516 2.8754699
-3.8814621 -0.91218209 2.8727756
-3.0220494 -0.91219819 2.873024
-2.9881649 -0.91041625 2.8751893
-2.8700628 -0.91879618 2.8754635
-3.9554741 -0.90831828 2.8717499
-3.4728172 -0.90528917 2.8771901
4.2377505 -0.88383102 2.8708291
-3.7655501 -0.87712646 2.8751411
-2.8031993 -0.87860131 2.8780189
3.0972881 -0.87689757 2.8754516
4.085968 -0.87433362 2.8739212
-3.5671759 -0.86077732 2.8779812
2.5324018 -0.8615824 2.8713675
-4.2644577 -0.83873498 2.8755345
-3.0571275 -0.8333866 2.8774552
3.3447375 -0.83178997 2.8795934
-4.8572907 -0.82785678 2.8711195
-3.9885812 -0.82316673 2.8761909
3.3201759 -0.82330072 2.8761268
-4.3428626 -0.81411195 2.875829
-3.2245314 -0.81202185 2.8780551
2.5560322 -0.81233466 2.8777795
-4.6322436 -0.80869323 2.8771541
-4.4185915 -0.80743456 2.8782506
-4.2841249 -0.80523574 2.8756623
-3.8188977 -0.8002336 2.8746006
3.1505651 -0.80036151 2.8745925
-4.4179649 -0.79945821 2.8756366
-3.344233 -0.79842663 2.8789492
-2.746733 -0.79532409 2.8718307
3.7491016 -0.79910046 2.875803
-4.5789461 -0.76666141 2.8796363
-3.5373003 -0.76459974 2.878073
2.8672566 -0.7642222 2.8785942
-3.0677087 -0.7574991 2.8726239
-2.8418875 -0.95678675 2.8814969
-4.8098311 -0.9347024 2.883498
-4.5860276 -0.93484092 2.8835623
-4.3622499 -0.93484092 2.8835623
-4.1384716 -0.93484092 2.8835623
-3.9146738 -0.9349786 2.8836265
-3.8102477 -0.93075299 2.8838868
-3.6908956 -0.9349786 2.8836265
-3.4671192 -0.93497789 2.883626
-3.2433257 -0.93511724 2.8836911
-3.1365976 -0.92344081 2.8861339
-3.8698721 -0.91403413 2.8876343
-3.6355817 -0.90373749 2.8888435
-3.5277658 -0.89553702 2.886167
-3.1830673 -0.89255691 2.8814526
2.8592682 -0.8951602 2.8866253
3.9485686 -0.89510798 2.8896365
-3.8824058 -0.88968664 2.8866339
-4.7353153 -0.87519181 2.8861864
-3.4901245 -0.87400091 2.8865571
-3.3698564 -0.878102 2.8874433
2.7013803 -0.87810189 2.8874426
2.8211029 -0.8742938 2.8864894
-3.2397194 -0.85925579 2.8861988
2.5712831 -0.85941476 2.8861723
-3.8419142 -0.84813857 2.88345
3.1723661 -0.84856951 2.8805139
-4.370398 -0.830598 2.8803263
-3.7892654 -0.83435768 2.8825312
3.7018185 -0.83044565 2.8803484
-3.1219614 -0.81909949 2.8802576
-2.9251571 -0.80834079 2.889101
-3.5725243 -0.7750268 2.8801928
-3.2574089 -0.77089858 2.887058
-2.993655 -0.7787928 2.8825364
2.903322 -0.77464461 2.8801031
-4.1215806 -0.7660706 2.8819301
-3.9073873 -0.76881385 2.8834081
3.2381849 -0.76842976 2.8830745
3.450752 -0.76567388 2.8835001
3.9165165 -0.76978111 2.8823318
-4.2113814 -0.75218058 2.8813405
-4.1579084 -0.75730085 2.8829954
3.4892247 -0.75725091 2.8829994
3.5439708 -0.75243759 2.8816068
-4.8666706 -0.96088624 2.8980513
-3.4510212 -0.92849517 2.8926942
-2.849426 -0.92804015 2.8989558
-3.8527358 -0.91582727 2.8953161
-4.3070974 -0.89343059 2.893877
-3.9528491 -0.89725673 2.8987732
-3.9131234 -0.89058709 2.898984
-4.7726965 -0.88639581 2.8997924
-4.5613613 -0.88635063 2.8996639
-4.3500271 -0.88630593 2.8995368
-4.1386905 -0.88626087 2.8994093
-3.9692757 -0.88858449 2.8954129
-3.9273517 -0.88621628 2.8992827
-3.7160108 -0.8861717 2.8991554
-3.5046654 -0.88612688 2.8990283
-3.2933183 -0.88608181 2.8989003
-3.1595759 -0.8874557 2.8928397
-3.0819705 -0.88603711 2.8987732
-2.9927642 -0.88836563 2.8982837
-3.4455893 -0.86213648 2.8939228
2.7780433 -0.86162114 2.8947539
-4.2171836 -0.85650367 2.8900659
-3.1224597 -0.8562966 2.8936491
3.5487077 -0.85650355 2.8900645
-3.0983713 -0.84787124 2.8950388
-2.8038738 -0.83309519 2.8939681
-4.5607209 -0.82284802 2.8959837
3.8922443 -0.82284766 2.8959842
-4.5109339 -0.81284237 2.895401
-4.1056075 -0.80081844 2.8968444
-3.2336969 -0.80935925 2.8954124
2.5651414 -0.80914426 2.8956013
-4.894568 -0.79864073 2.8900347
-4.5324745 -0.79354864 2.8927753
-4.3026462 -0.79383707 2.8947744
-3.8753743 -0.79798162 2.8935447
4.2254267 -0.79803801 2.8903151
-4.4844866 -0.78909731 2.8977814
-4.8184361 -0.77531785 2.8984673
-2.8676963 -0.77352858 2.8923275
2.8844862 -0.76768905 2.8916459
-4.8509159 -0.96261823 2.9019861
-3.7999372 -0.959095 2.900763
-4.6120133 -0.93502998 2.9097178
-3.1686172 -0.93143362 2.9070339
2.5002344 -0.93128407 2.9070132
-3.7007554 -0.9228518 2.9058831
-3.6085725 -0.9116286 2.908531
-3.5240388 -0.91336679 2.9000368
-4.3595257 -0.89280283 2.9068332
-3.9814427 -0.89820468 2.9012487
-3.9160829 -0.89125586 2.9041519
-3.6400034 -0.89503288 2.9071662
-3.4441552 -0.89483821 2.9043064
-3.4098809 -0.89806926 2.9075541
-3.4607339 -0.88983023 2.9012585
-4.2148743 -0.87670577 2.9086506
3.0164022 -0.87916207 2.9012628
-4.4073596 -0.86245054 2.9092054
-3.0641584 -0.86056912 2.9045258
2.3956819 -0.86056894 2.904526
-4.2729244 -0.85181296 2.9031246
3.605947 -0.85143828 2.9034998
-3.7204714 -0.83128065 2.9036083
3.0519953 -0.83128124 2.9036088
3.4728792 -0.8336485 2.907805
-3.9842796 -0.81624651 2.9025815
-2.8458376 -0.81067723 2.9024467
-3.2436495 -0.80561233 2.905899
-3.9449623 -0.79119194 2.90973
-3.2843931 -0.78684855 2.9099219
-3.0736814 -0.78689253 2.9097934
-3.1080244 -0.77065706 2.9050548
-3.0472348 -0.76597154 2.9077065
-2.9849675 -0.74953538 2.9067149
-4.623745 -0.96251607 2.9102564
-4.3954945 -0.96257341 2.9185457
-2.885741 -0.95985144 2.9149656
-3.6719792 -0.91218185 2.916513
-3.1726475 -0.91258359 2.9125884
-2.7541904 -0.91436899 2.9183991
-4.1736574 -0.90831852 2.9173045
-3.9776511 -0.90615082 2.9186926
-3.6671991 -0.90066302 2.9122205
2.9987221 -0.90066326 2.9122195
-3.1864262 -0.89124119 2.9197118
-3.7349327 -0.88846403 2.9100792
-4.1786284 -0.86236787 2.9175096
-3.7763939 -0.85919595 2.9136548
-3.1156392 -0.85964513 2.913836
2.3748636 -0.85782027 2.916388
3.1079636 -0.85935569 2.9136298
-2.9113953 -0.83729571 2.9194555
-2.8977401 -0.83349466 2.9101899
2.5245934 -0.83798844 2.9119465
-3.2268465 -0.79562491 2.9113779
2.5583882 -0.79555959 2.91149
3.4022517 -0.79111826 2.9144053
-4.7593536 -0.78663188 2.9105546
-4.5486345 -0.78663158 2.9105554
-4.3379154 -0.78663129 2.9105566
-4.1272159 -0.78667486 2.910429
-3.9530206 -0.78882629 2.9176991
-3.9165123 -0.78671825 2.9103024
-3.7058084 -0.7867617 2.9101756
-3.4951036 -0.78680569 2.9100471
-2.9214783 -0.78840172 2.9178679
2.4051335 -0.78667486 2.910429
2.6158381 -0.7866317 2.9105551
3.2844858 -0.78875721 2.9178171
-4.3693714 -0.96073925 2.9244957
-4.1661072 -0.96247399 2.9268956
-4.3411541 -0.95893687 2.9284139
-3.1485648 -0.95973629 2.9238949
2.4800878 -0.95973653 2.9238939
-3.3905516 -0.93772256 2.9225121
-4.2715368 -0.92239273 2.9259312
-3.9243979 -0.92682338 2.929647
3.2559218 -0.9268235 2.9296455
-4.1708107 -0.9006927 2.924772
-2.9299679 -0.90192115 2.9206145
-3.7673535 -0.89666593 2.9284377
3.0985746 -0.89693594 2.9283352
-4.510633 -0.88270926 2.9253521
-3.6832099 -0.87857139 2.9255927
-3.3765912 -0.87039465 2.9290226
-4.8401122 -0.86076641 2.9251647
-3.9487815 -0.86228514 2.9258552
-3.3790462 -0.8597188 2.922781
2.7105694 -0.85971856 2.92278
-3.0832438 -0.83195019 2.9264369
-4.4524117 -0.82975721 2.9229105
2.6725919 -0.81625831 2.9262843
-4.8501549 -0.80858421 2.9227576
-3.9062662 -0.80440485 2.9207258
-3.4461007 -0.80110919 2.9206245
2.6035478 -0.80862725 2.925523
2.7777662 -0.80123651 2.92062
-4.6876121 -0.79699332 2.9240191
-4.2888107 -0.79287088 2.9256227
-3.8451619 -0.79152668 2.9231982
-3.7233248 -0.79218078 2.9201999
-3.3751497 -0.79665625 2.9203439
-2.9956751 -0.79532313 2.9238062
2.5445318 -0.79226369 2.9226809
4.1076241 -0.7950511 2.9215899
-3.3896224 -0.7899856 2.9205694
3.1843464 -0.78211659 2.9224529
-3.20591 -0.77912039 2.9223793
2.5367997 -0.77886677 2.92381
-3.4792516 -0.76200163 2.9211438
-3.0914586 -0.76185358 2.9266281
2.8117063 -0.7625047 2.9219739
-3.9355979 -0.96237361 2.935287
-3.4127641 -0.95962167 2.9328718
2.7442868 -0.95962298 2.9328699
-3.7401066 -0.93417966 2.9374547
-4.1182566 -0.91641808 2.934221
-3.3808463 -0.90092933 2.935046
-3.2448986 -0.90289444 2.9348717
2.7123682 -0.90092969 2.9350445
-3.7770042 -0.89553702 2.9382055
-2.9265723 -0.89242733 2.935173
3.1085165 -0.89528632 2.9385109
-4.0525956 -0.87200487 2.9385357
-3.0843649 -0.87248445 2.935226
3.3835549 -0.87230241 2.9384646
-4.7469406 -0.86025298 2.9384689
-4.3704443 -0.86088431 2.9367957
-3.7178111 -0.86220109 2.9342408
-3.1447332 -0.86109233 2.9336419
2.4754825 -0.86129272 2.9336655
4.0141754 -0.86283362 2.9357901
-4.3187437 -0.85646117 2.9398146
-4.1668677 -0.8571198 2.9394836
-3.6437626 -0.85962164 2.9317517
-2.8269398 -0.85779214 2.9353538
2.9752858 -0.85962105 2.9317503
-4.6999187 -0.84782141 2.9390757
3.8610008 -0.83069682 2.9317479
-3.4284618 -0.82756662 2.9335003
2.7600868 -0.82772589 2.9335663
-4.3033123 -0.81284273 2.9387503
-3.4678276 -0.81219733 2.9353414
3.7766888 -0.81812924 2.9386616
-3.8856659 -0.79490757 2.9390118
-3.5022817 -0.79660738 2.9357924
3.2173743 -0.79510063 2.9388251
