# .PCD v0.7 - Point Cloud Data file format
VERSION 0.7
FIELDS x y z
SIZE 4 4 4
TYPE F F F
COUNT 1 1 1
WIDTH 1488
HEIGHT 1
VIEWPOINT 0 0 0 1 0 0 0
POINTS 1488
DATA ascii
2.5580442 -0.78610146 3.8295152
3.173054 -0.78860384 3.8274648
3.3155813 -0.78809857 3.8269854
3.8987668 -0.7863133 3.8210149
4.0963078 -0.77694672 3.8210886
3.5892749 -0.763623 3.8236899
4.0501618 -0.76814425 3.8204899
4.2922144 -0.76125908 3.8284411
-3.2293766 -0.75450408 3.8244603
-3.9604793 -0.96152192 3.8348339
2.8976448 -0.96152169 3.8348331
4.0975375 -0.96043801 3.8311348
-3.3305957 -0.95999086 3.8302777
-3.1283288 -0.95916808 3.8347981
-2.4465606 -0.93078792 3.838155
3.4965718 -0.9331134 3.83394
4.3959627 -0.9347136 3.835685
-2.4463139 -0.92698467 3.8386931
-3.3949623 -0.91208458 3.8390806
3.1906738 -0.91135693 3.8356829
-3.8045783 -0.90840065 3.831372
2.741745 -0.90840042 3.831372
3.5622835 -0.90047693 3.8343616
3.6401865 -0.90271091 3.8366847
4.2859597 -0.90282798 3.8392138
-2.587183 -0.89667404 3.832159
2.9716864 -0.89859545 3.8379633
3.6272473 -0.89296281 3.833508
-3.6230721 -0.88830256 3.8338401
-3.0129442 -0.88929427 3.8353276
3.2940066 -0.88763189 3.8341961
3.327975 -0.88760597 3.8382838
-3.7561674 -0.87624031 3.8363667
-3.7443397 -0.87196279 3.839746
2.6811366 -0.87216079 3.8396962
3.2972236 -0.87458104 3.8325994
-3.5304272 -0.86285019 3.8303466
-1.8817432 -0.86909866 3.8358483
2.6755321 -0.8615303 3.8336198
-3.4314878 -0.85874474 3.8391376
-3.3750029 -0.85710752 3.8386865
-3.3623643 -0.85907423 3.8335092
-2.8237503 -0.85704201 3.830163
4.3510342 -0.85851109 3.8383098
-3.3216374 -0.84983718 3.837616
-2.232198 -0.84568048 3.8379462
-2.2558541 -0.83069414 3.8356802
3.8735762 -0.83380413 3.8326283
4.2141886 -0.83454347 3.8333509
-2.2101357 -0.8265118 3.8383281
4.1595259 -0.81581092 3.8326454
3.4196706 -0.80841345 3.8362339
-2.5807676 -0.78998828 3.833657
3.7295322 -0.7879613 3.8324456
-3.8280132 -0.77252221 3.8322458
-3.3903642 -0.77530551 3.8383873
-2.4206071 -0.77698517 3.8343945
2.7648091 -0.77232754 3.8321962
-2.7318926 -0.76582336 3.8315678
3.8375983 -0.76380587 3.8324225
3.4479241 -0.75455403 3.8345106
-3.7235808 -0.96141368 3.8446076
-3.3958037 -0.95904863 3.8451846
-3.6401339 -0.93674564 3.84498
-2.3784993 -0.93102592 3.8474987
-3.7666287 -0.92801714 3.849566
-3.7263346 -0.92423576 3.8425615
-2.009618 -0.9262116 3.8409591
2.7038581 -0.92827106 3.8496795
3.6375799 -0.92904717 3.841779
4.2868094 -0.92134774 3.8496633
-3.6782556 -0.91790873 3.8477788
-3.3925364 -0.91654819 3.8494973
-3.1336236 -0.91232884 3.8485355
-2.9083869 -0.91134524 3.8415413
-3.0330925 -0.90842128 3.8499639
-2.4118698 -0.90912688 3.8452613
-3.7114875 -0.89143264 3.8464355
-3.3762178 -0.89503443 3.8434806
-3.2550588 -0.89462006 3.8475792
-2.9676635 -0.89945722 3.848973
2.64854 -0.89134181 3.8462374
3.71207 -0.89329588 3.8428395
3.782733 -0.89636922 3.8483472
-3.5010283 -0.86128521 3.8433654
-3.3354397 -0.86019504 3.8414156
4.0971351 -0.86055702 3.8421578
4.3274355 -0.86806655 3.8465667
-3.6303632 -0.85897988 3.8438892
-3.2847474 -0.85421932 3.8480597
2.8603964 -0.85717332 3.8471627
3.5086176 -0.85416698 3.8439059
4.40626 -0.85529006 3.841918
4.4589858 -0.85267675 3.847291
4.3176732 -0.84474581 3.848738
-3.1546669 -0.83663058 3.8438382
-2.7904744 -0.83153474 3.8460701
-2.994689 -0.82762039 3.8428564
4.18927 -0.82975233 3.8499269
4.2131586 -0.82899189 3.8405042
-2.2463183 -0.81126404 3.8462396
3.8294659 -0.81517434 3.8487318
-3.718168 -0.80050719 3.8400481
-3.8085811 -0.79978347 3.8416698
-3.7092099 -0.79209352 3.8458347
-3.3650854 -0.79319882 3.8461587
-3.1587791 -0.79500937 3.8493083
2.6463184 -0.79213804 3.845736
2.6547267 -0.79991657 3.8403089
2.7457466 -0.79978347 3.8416727
3.1784108 -0.79777956 3.8492618
3.9655011 -0.79084319 3.8484681
4.1952772 -0.79358894 3.8450954
3.3225975 -0.77346683 3.8423238
4.34231 -0.77557373 3.8444734
3.2292638 -0.75676608 3.8408432
-3.4855165 -0.96130854 3.8544285
3.5940518 -0.9602859 3.8592081
-3.6646068 -0.95910227 3.8556015
-2.8172433 -0.95983875 3.858638
-2.2608964 -0.95675319 3.858361
2.6018438 -0.95893127 3.8556259
2.9354479 -0.95859665 3.8568728
-2.1793449 -0.93054801 3.8579681
4.1579652 -0.93450546 3.8543694
4.6954179 -0.93436873 3.8555329
-2.6858027 -0.92351282 3.8572145
3.995559 -0.92413735 3.8538749
-3.0343986 -0.91139007 3.8559992
3.1501729 -0.91192031 3.8548255
3.7566245 -0.91623163 3.8514547
4.6770506 -0.91421151 3.852931
-3.9628096 -0.89736176 3.8513379
-3.7483478 -0.89736176 3.8513384
-3.533886 -0.89736176 3.8513384
-3.4447062 -0.89316022 3.8524501
-3.3194222 -0.89736128 3.8513374
-3.1049471 -0.89744294 3.8514476
-2.8904872 -0.89744341 3.8514485
-2.6760263 -0.89744318 3.8514485
-2.4615653 -0.89744294 3.8514481
-2.2471054 -0.89744365 3.851449
2.6854475 -0.89768684 3.851778
2.899904 -0.89768755 3.8517795
3.1143615 -0.89768732 3.851779
3.3287983 -0.89776921 3.8518896
3.5432558 -0.89776897 3.8518896
3.7577343 -0.89768827 3.8517804
3.9462547 -0.89039636 3.8555605
3.9722161 -0.89760625 3.8516693
4.1866994 -0.89752471 3.8515592
3.1932364 -0.8851732 3.8575974
4.0074239 -0.88654709 3.853555
-3.2624898 -0.86120206 3.8531811
-3.0088527 -0.86575043 3.8575783
-2.9536419 -0.86592376 3.8525355
-2.1749277 -0.86122704 3.8553376
2.8493807 -0.8690666 3.8545489
-3.8996918 -0.85871363 3.8542988
-1.9127653 -0.85311556 3.8581634
2.8369303 -0.85888416 3.8543243
3.2250874 -0.85560894 3.8595536
3.4056265 -0.85723674 3.8555927
3.8140187 -0.85553503 3.8507977
-3.8979664 -0.83471638 3.8586345
-3.6735311 -0.83471626 3.8586345
-3.4490943 -0.83471537 3.8586349
-3.224658 -0.83471644 3.8586345
-3.0002203 -0.83471686 3.8586342
-2.7757835 -0.83471596 3.8586347
-2.5513473 -0.83471715 3.858634
-2.3269114 -0.83471656 3.8586345
-1.9878569 -0.8302449 3.855469
2.6107149 -0.83485442 3.858573
2.6607416 -0.83427489 3.8572202
2.8351703 -0.83499134 3.8585119
3.0596108 -0.83499223 3.8585112
3.284029 -0.83485514 3.8585725
3.5084667 -0.83485544 3.8585725
3.7329054 -0.83485556 3.8585722
3.9573421 -0.83485442 3.858573
3.97542 -0.83427227 3.8520348
4.1817799 -0.83485299 3.8585739
-3.5341969 -0.82295322 3.8501151
-2.5132713 -0.82616383 3.8594129
3.4728563 -0.82498074 3.8520975
3.5422378 -0.82983834 3.8589604
-3.6485639 -0.81729132 3.8504233
-3.5548618 -0.81187117 3.8596513
-3.2786348 -0.81294572 3.8516629
3.8819983 -0.81651533 3.8544264
3.9613094 -0.81306034 3.8543127
-3.8134155 -0.80543852 3.8560171
-3.0856769 -0.80906332 3.8501608
-2.2259128 -0.80659211 3.851397
2.7504377 -0.80569959 3.855772
-3.8924038 -0.79981488 3.8597572
3.1178393 -0.799016 3.8595004
3.56582 -0.79654527 3.8542976
3.9336011 -0.77477407 3.852453
-3.3680291 -0.76091301 3.8549993
4.2991524 -0.7571733 3.8592262
3.3308558 -0.74988782 3.8523197
-3.2462759 -0.96120083 3.8642991
-2.8169279 -0.95675647 3.8669283
2.8721313 -0.95880914 3.8661225
-3.6590548 -0.9325124 3.8694897
3.1053472 -0.93731403 3.8613863
-2.3117867 -0.92593282 3.8620484
2.975131 -0.92975819 3.8601615
3.8518233 -0.91059375 3.8627985
-2.8322396 -0.90378046 3.866569
3.4801383 -0.90629363 3.8639035
-2.3931451 -0.89166045 3.8639641
4.3458848 -0.89460087 3.8674622
-3.8925009 -0.88864398 3.8643622
-3.4222322 -0.88365728 3.8618896
-2.7396319 -0.88055688 3.8632729
-2.5682764 -0.88243306 3.8658292
-2.1963515 -0.88235444 3.861366
2.8298869 -0.88871551 3.8644495
4.5820136 -0.88787448 3.8625774
-3.022773 -0.8611185 3.8630459
-2.823576 -0.86014408 3.8697231
-3.9746282 -0.85868526 3.8683362
-3.7023802 -0.85585344 3.8683324
2.9118409 -0.85884678 3.8683145
3.1077456 -0.85878861 3.8648131
3.9478807 -0.85729861 3.863975
4.5461702 -0.85260749 3.8632956
-3.6890626 -0.83718324 3.8603184
2.6261752 -0.83732033 3.8603005
2.9874427 -0.8329547 3.8679969
-2.4909511 -0.82723069 3.8644986
2.5828717 -0.81532395 3.8685551
3.4943781 -0.8145268 3.8650632
3.5225596 -0.81114888 3.8638153
4.5068512 -0.81956309 3.8672948
3.9054461 -0.80370843 3.8637676
4.5555806 -0.80274814 3.8607883
-2.8309007 -0.79642451 3.8628564
3.8036802 -0.79846013 3.8658454
3.8759711 -0.79305446 3.8654077
-3.2380219 -0.78942299 3.8650756
3.9155338 -0.78492856 3.8658998
4.7451754 -0.78848124 3.8601546
-2.7261124 -0.77106965 3.8689561
3.4358997 -0.77462411 3.8650501
-2.8896894 -0.76701415 3.8632281
-3.4229486 -0.75926429 3.8619382
-3.0058858 -0.96125561 3.8741963
-3.3699088 -0.95692772 3.8753777
3.1438403 -0.95868969 3.876672
-3.3883731 -0.93060899 3.8782024
3.6241541 -0.93787217 3.8775063
3.9176633 -0.93415952 3.8732507
-3.5243051 -0.92607069 3.877727
-3.2695293 -0.92774558 3.8711987
4.4583158 -0.92944598 3.8775229
-2.8147089 -0.91616148 3.8747573
-2.6680717 -0.91068316 3.8731885
-3.6725028 -0.90980458 3.8755934
-2.2673612 -0.90282637 3.8711278
2.9601636 -0.90840065 3.8769758
-1.9701571 -0.89141476 3.8770542
2.8493905 -0.89489686 3.8728344
2.9763503 -0.89416093 3.8746095
3.4394894 -0.89280796 3.877872
3.8817301 -0.89815104 3.8718669
4.5658708 -0.89271915 3.875865
3.9202061 -0.88847911 3.8756795
3.5453408 -0.87533104 3.8757687
-2.7818701 -0.86103457 3.8729589
-2.2742562 -0.86230862 3.8715596
-2.1385536 -0.86931086 3.8762789
3.5950832 -0.86035168 3.8702016
-3.4775136 -0.8587572 3.8711405
-3.1200974 -0.85592175 3.8769884
3.3799863 -0.85869277 3.8753564
4.487186 -0.85736227 3.872314
3.3929193 -0.8488785 3.8767939
-3.9471192 -0.8303647 3.8770897
2.8843837 -0.83051652 3.877073
3.1512375 -0.8377248 3.8765087
3.7343967 -0.83399892 3.8708951
-3.0296478 -0.82682574 3.8760037
3.0392079 -0.82251263 3.8731871
3.7109985 -0.82926011 3.8710866
-3.0763745 -0.81678045 3.8756261
3.7801964 -0.81267381 3.8726802
-2.88731 -0.80808192 3.8773832
-3.2598357 -0.79991692 3.876797
-2.6161849 -0.79324615 3.8744445
3.5893476 -0.79809862 3.8790381
3.8739078 -0.79300666 3.8746994
4.3723578 -0.7951597 3.8759561
-3.7026081 -0.78424752 3.8717721
-3.5687604 -0.78959775 3.8746569
-2.2737987 -0.78129774 3.8752782
-2.2379253 -0.78234273 3.8708942
2.8631709 -0.78921431 3.8734341
-3.3525903 -0.7777487 3.8704231
3.5256312 -0.77624542 3.8751013
-2.7642694 -0.96114892 3.8841627
3.0880048 -0.96029234 3.8874478
-2.5773311 -0.95891482 3.8865826
-2.3012486 -0.95968616 3.8871443
3.4169834 -0.95856893 3.8872769
3.4831088 -0.95859838 3.8863044
3.8424151 -0.95530772 3.8888931
4.4366484 -0.95530152 3.8800917
-3.2458518 -0.92306256 3.8802094
-2.617173 -0.92564827 3.8833606
-3.4171176 -0.91296589 3.885071
-2.696882 -0.91134548 3.8857017
4.0161448 -0.91692138 3.8864138
3.2532549 -0.9019773 3.8876228
-3.6552267 -0.89931476 3.8802152
-2.5721459 -0.89036977 3.8859422
2.592247 -0.89944685 3.8802192
3.215703 -0.8979795 3.882802
-3.5817702 -0.88776451 3.8883281
3.1674893 -0.88836575 3.8805447
3.895113 -0.88484704 3.8847218
4.1786985 -0.88048327 3.8853512
-3.0971947 -0.87466943 3.8886776
-2.1294379 -0.87641823 3.8837118
4.3094835 -0.87839204 3.8824317
4.4473686 -0.8715204 3.8825288
-3.0922863 -0.86058402 3.8814726
-2.539773 -0.86094642 3.88292
-2.5410991 -0.85599339 3.8855963
3.6535838 -0.85842311 3.8859303
3.4910865 -0.83372247 3.8899338
4.2005858 -0.83417767 3.8890462
-2.8195267 -0.82566106 3.880697
-3.9872603 -0.81754774 3.8896406
-3.5587144 -0.81359994 3.8878734
3.1541476 -0.81386924 3.8816462
4.1384993 -0.8171159 3.8890867
-3.4345307 -0.80051792 3.8834946
-2.1173029 -0.80817497 3.8836884
3.6378677 -0.80841398 3.8817906
4.1436214 -0.80067182 3.8830166
3.1949377 -0.78179497 3.8885167
3.385627 -0.78853446 3.8870063
3.5358028 -0.78787559 3.8876276
4.4413214 -0.78514314 3.8807423
4.3092093 -0.77694684 3.8811901
-2.4024975 -0.76363409 3.8876665
-2.5214505 -0.96104074 3.8941815
3.2515664 -0.95531607 3.8976419
3.403928 -0.95710242 3.8922062
3.691572 -0.95844722 3.8979399
-2.751457 -0.93129051 3.8958769
3.6750779 -0.93380797 3.8923132
3.8286495 -0.93350548 3.8908467
4.1339617 -0.9384191 3.8933454
-2.766953 -0.92734361 3.8930111
3.9811358 -0.92906284 3.8987875
-4.0031681 -0.91213179 3.8988185
-2.0984261 -0.91281497 3.895535
2.9403217 -0.9118154 3.8985512
-2.7062261 -0.90186048 3.8900559
-2.6285186 -0.90912592 3.8904946
-2.2957621 -0.90985763 3.8906078
3.9713099 -0.90721512 3.8995833
4.5218487 -0.90997982 3.8901553
-3.175528 -0.89496756 3.8994527
3.596113 -0.89373672 3.8944397
-2.7493267 -0.88916171 3.8905425
3.079304 -0.88690686 3.8927946
3.1331022 -0.88762873 3.8934212
3.0269995 -0.87346852 3.8929486
3.9057529 -0.8741622 3.8937006
4.0467286 -0.87151539 3.8983347
-2.4511971 -0.86320931 3.8966849
-2.3090847 -0.86009085 3.8981757
-2.2964706 -0.8608619 3.8929322
3.0904822 -0.86029941 3.8983662
-2.5580566 -0.85901952 3.8978686
3.45786 -0.85878992 3.8976665
3.9287064 -0.8583262 3.8965852
4.1554937 -0.85355473 3.8932405
4.5059385 -0.85953498 3.8967857
2.905412 -0.84469545 3.8980577
-3.3019669 -0.830881 3.8948665
2.5182326 -0.83858258 3.8926222
3.667104 -0.83825815 3.8924174
3.2276073 -0.82876325 3.8924732
3.6137025 -0.8220644 3.8965285
4.612885 -0.82404184 3.8925853
-3.8667464 -0.81998897 3.8955195
-2.2079225 -0.81949973 3.8980477
2.8087263 -0.81309891 3.89853
4.1852989 -0.81055903 3.8909729
-3.3021049 -0.80906248 3.8953495
-2.6000676 -0.80386126 3.8949976
-2.2252192 -0.80211973 3.8979673
3.25279 -0.8066771 3.8917515
-3.3665602 -0.79620361 3.8959262
-2.9657636 -0.7918191 3.8970349
-2.5456755 -0.79365486 3.8921809
3.0835743 -0.79906905 3.8993316
3.5915091 -0.79424042 3.8939173
4.0696206 -0.79728734 3.8988817
-2.7901726 -0.78998756 3.8921826
-3.5387669 -0.77864671 3.8940296
3.3372431 -0.77035558 3.8929751
-2.3111391 -0.76227713 3.8972478
-2.2871914 -0.76693118 3.8969147
4.3014493 -0.76814377 3.890718
-3.5440087 -0.75254011 3.8929212
-3.2701175 -0.75248384 3.8927064
-2.9962137 -0.75237048 3.8922729
-2.7223332 -0.75231457 3.8920579
-2.4484696 -0.75231481 3.8920584
-2.174593 -0.7522583 3.8918431
-1.9007226 -0.7522018 3.8916264
3.0290835 -0.75293446 3.8944309
3.3029418 -0.75287724 3.894213
3.576798 -0.75282145 3.8939986
3.850647 -0.7527647 3.8937819
4.124558 -0.75282121 3.8939977
4.3984733 -0.75287771 3.8942139
4.6723895 -0.75293374 3.894429
-2.2774203 -0.96093154 3.9042499
3.9478574 -0.95727319 3.9005153
3.9675362 -0.9584986 3.908633
4.4888177 -0.95744252 3.9087789
-2.7323258 -0.9312911 3.9063342
-2.223175 -0.93520939 3.9027648
-3.812499 -0.92247087 3.9034114
-2.9259362 -0.92520833 3.9049261
-2.0533645 -0.92728472 3.9008842
2.7495241 -0.9227441 3.9035342
-2.2295094 -0.91562122 3.900456
3.2295837 -0.91102695 3.9004922
4.2309093 -0.91811097 3.9051859
4.2601585 -0.91603994 3.9074969
-3.3549409 -0.90484166 3.9033613
-3.1528535 -0.90087533 3.9093168
2.9167695 -0.90280962 3.9090431
-3.0794063 -0.89684606 3.9016109
-3.045763 -0.89181244 3.9034898
-2.6520231 -0.89326239 3.9094763
-2.5508554 -0.89854729 3.9019718
3.5849206 -0.89630342 3.9035192
-2.5463207 -0.88898098 3.9050837
-2.2060137 -0.88166422 3.9096384
3.1717937 -0.8818686 3.9078317
-3.2849607 -0.8780663 3.9057689
-3.0551941 -0.87408352 3.9044447
3.2533851 -0.87022233 3.9007061
3.3682218 -0.87378144 3.901505
-2.0519557 -0.86077547 3.9029939
4.2052875 -0.85822725 3.9072959
-3.1387243 -0.83193219 3.9043145
3.2454555 -0.83344638 3.9091551
4.1740661 -0.83878088 3.908052
-3.129056 -0.82515073 3.9022086
-3.3452241 -0.81187057 3.9034224
-2.4969735 -0.81626415 3.9011474
4.4691114 -0.81906867 3.905937
-3.5283494 -0.80952466 3.902566
3.8267536 -0.80122161 3.9027743
-3.6704965 -0.79658604 3.9087417
-2.9584489 -0.79507518 3.9051795
2.6081707 -0.79620731 3.9091358
2.6510494 -0.79863858 3.9085305
3.0093064 -0.79522347 3.9040916
3.2233393 -0.79430068 3.9060121
3.3683753 -0.79654527 3.9094787
4.4144411 -0.79784513 3.9090443
-2.5471702 -0.78980863 3.90431
4.133244 -0.7809934 3.9075732
-2.9878664 -0.76574051 3.9029076
3.0442538 -0.74584329 3.9054184
-3.6422048 -0.96014285 3.9158101
4.401371 -0.96043003 3.9157791
-3.1426084 -0.95585418 3.914767
-3.1169307 -0.95891547 3.9158597
4.0337358 -0.95843685 3.9158711
4.245048 -0.95837724 3.9194086
-2.775928 -0.93580449 3.9190211
-2.1267538 -0.93195987 3.9132118
3.4301801 -0.93345428 3.911556
-2.2588022 -0.92680883 3.9150062
3.5738478 -0.92495966 3.9180756
4.2262669 -0.91269684 3.9115534
4.1814804 -0.90072083 3.9156165
-3.4024174 -0.89533329 3.9148166
-2.6517043 -0.89165878 3.9179502
3.9938078 -0.89270836 3.9161441
4.579299 -0.86806691 3.9169562
4.4833393 -0.85812831 3.9180648
-1.9651104 -0.84561771 3.913816
-2.669425 -0.83168393 3.9122677
-2.2804976 -0.83571422 3.9181738
-3.8018193 -0.82838595 3.9140332
2.7390156 -0.82826078 3.9140892
3.0589201 -0.82544875 3.9158056
-3.5206816 -0.81242061 3.9156332
3.5721872 -0.812675 3.9161091
3.5245881 -0.80275619 3.9144433
-2.2065325 -0.79933238 3.9150107
2.8919282 -0.79243839 3.9160209
3.4418476 -0.79729164 3.9145148
4.479156 -0.78834748 3.9155157
-3.4975173 -0.77844548 3.9123375
-2.2093198 -0.77790248 3.9139102
4.0229592 -0.76607937 3.9102213
4.5717926 -0.73563445 3.9181025
-2.5617499 -0.95585918 3.9233699
2.9370804 -0.93232101 3.9272976
-3.2379117 -0.92491925 3.9266984
3.3227415 -0.92228353 3.9270701
3.4988661 -0.92880225 3.9203367
-3.6965275 -0.9137063 3.9210696
-2.732193 -0.91223371 3.9223857
-2.4853747 -0.91134524 3.929862
3.8308926 -0.91209853 3.9246955
3.9305489 -0.9154048 3.924165
4.2719254 -0.91749382 3.9208784
-3.2820821 -0.90028387 3.9217563
2.5440102 -0.90047151 3.9291818
3.1785822 -0.90840018 3.9225788
4.532577 -0.9042539 3.9243915
-3.6074476 -0.89987421 3.9289212
-3.4330103 -0.89668989 3.9259768
-2.612519 -0.89387107 3.9230058
-2.2753592 -0.8987273 3.9293976
3.1495886 -0.89892101 3.9286473
3.5204093 -0.89692926 3.9206598
-3.9966707 -0.883093 3.924778
-3.7865615 -0.87418962 3.922688
-2.1263478 -0.87764162 3.9212358
-3.6461427 -0.86024761 3.9266756
-3.2654171 -0.86583591 3.9290814
2.5833173 -0.86009276 3.9266961
4.1605515 -0.86214608 3.923409
4.5518179 -0.86600661 3.9210777
-3.0960507 -0.8589614 3.9270682
4.0067282 -0.85856915 3.9271977
-2.7725828 -0.8449018 3.927989
2.9975393 -0.83302748 3.9285386
3.3232789 -0.83319074 3.9249756
-3.4420271 -0.8247906 3.9239776
-2.6138 -0.82408822 3.92557
4.19489 -0.82147622 3.9202063
4.4920535 -0.82538342 3.9262371
-2.4255533 -0.81317425 3.9230638
-2.0666084 -0.81058031 3.9238715
-1.9102248 -0.81574166 3.9269924
2.771692 -0.81446624 3.9235499
3.0870295 -0.81104034 3.9270334
4.391489 -0.81760252 3.9232624
-3.066777 -0.80124325 3.9246147
3.7455077 -0.80763721 3.9270408
3.8561101 -0.80852199 3.9272559
-2.8498666 -0.79901588 3.9295104
4.3634648 -0.79576349 3.9250476
-3.7470188 -0.78818727 3.9233441
-3.3054209 -0.7895968 3.9296384
-3.3341582 -0.77898067 3.9296072
-3.0120497 -0.77485073 3.9279275
-3.458657 -0.76224786 3.920146
-3.1021068 -0.76074076 3.9288847
4.1870947 -0.75406313 3.9204512
-1.985384 -0.9557187 3.9343753
-3.3187914 -0.93638885 3.9349866
3.1830006 -0.93323672 3.9309633
3.6755362 -0.91759586 3.9304361
-3.8673537 -0.90579486 3.9393508
-2.8451657 -0.90912712 3.9357293
2.8043776 -0.90553164 3.9391074
3.8922975 -0.90163016 3.93139
4.4531751 -0.90820432 3.9346623
-2.4575353 -0.89035404 3.9344795
3.6955686 -0.89267945 3.9314995
3.6539202 -0.88847983 3.9312763
-3.5089037 -0.87877417 3.9338791
-3.4708288 -0.8785944 3.9323642
-3.3497243 -0.87850624 3.930311
4.0302849 -0.86575121 3.9363065
-3.5556366 -0.85227859 3.9360857
-3.280688 -0.8523376 3.9358675
-3.0057447 -0.85239601 3.9356513
-2.7308056 -0.8524549 3.9354336
-2.4558694 -0.85251272 3.9352193
-2.180948 -0.85251284 3.9352188
-1.9282327 -0.85691065 3.9364567
-1.9060174 -0.85257173 3.9350004
3.0427804 -0.85198653 3.9371676
3.317771 -0.85186911 3.9376025
3.5926557 -0.85198617 3.9371686
3.8675656 -0.85204494 3.9369514
4.1425023 -0.85204482 3.9369519
4.4174709 -0.85198641 3.9371681
-2.8299403 -0.8362819 3.9342082
-3.3079047 -0.82800615 3.9358263
-2.6319399 -0.82727695 3.9382837
-3.1642926 -0.81173086 3.9330032
3.9190674 -0.81843656 3.9309025
-3.1244249 -0.80470133 3.9314632
-3.2375786 -0.79709613 3.9323428
-2.6933646 -0.77512324 3.9377518
3.89993 -0.96043754 3.9440184
-3.6593747 -0.95891851 3.945292
-3.1309648 -0.95999205 3.9443173
2.5966306 -0.9585939 3.9452488
4.1575823 -0.9337467 3.9472876
-3.5532618 -0.92462707 3.9487083
-3.1197457 -0.92621589 3.9407558
3.0114059 -0.92853761 3.942116
4.0339394 -0.9287644 3.9426107
-3.7933254 -0.91213226 3.942632
-3.3743782 -0.91164339 3.9495935
2.7304683 -0.91170907 3.9422758
3.5958471 -0.91465926 3.9410429
4.4147515 -0.91348004 3.9480481
-3.7072124 -0.89613175 3.9428151
-2.7819519 -0.89037001 3.9445784
3.0067697 -0.89945757 3.9491408
-2.4856622 -0.88916171 3.9455929
2.93821 -0.8876285 3.9484382
3.3804727 -0.88843632 3.9402008
-3.4607046 -0.86234379 3.9468024
-2.2404666 -0.86596704 3.9416792
-3.1561391 -0.85970974 3.9482474
-2.4850116 -0.85697746 3.9447334
-3.3696027 -0.83683872 3.9499588
-2.2005224 -0.8310324 3.9417586
2.7472401 -0.83260435 3.9481075
4.5245771 -0.83454835 3.9449408
-3.7582688 -0.82427108 3.9459546
-3.1697459 -0.82352364 3.9488709
-3.1355855 -0.81186938 3.9471936
-3.5185347 -0.80906224 3.9405379
-3.6475916 -0.79542196 3.9458263
-2.5559926 -0.79048878 3.9492514
2.5849371 -0.79561496 3.945647
3.6030459 -0.79924631 3.9416122
3.1271391 -0.78580296 3.9468865
3.3420017 -0.78787553 3.9423375
3.5981994 -0.78846538 3.9465468
3.9409652 -0.78701198 3.9416542
-3.4291048 -0.77137202 3.9477975
4.7005243 -0.75787258 3.9421299
-3.8520298 -0.93696189 3.9506681
2.7891955 -0.93696094 3.950666
2.9333761 -0.93287683 3.9505751
-2.3279698 -0.92395675 3.955493
3.902719 -0.92181849 3.9508843
-2.2082698 -0.91012716 3.9583728
2.4996905 -0.91208637 3.9507682
2.9086609 -0.91398621 3.9565346
3.1132469 -0.91707599 3.9559996
3.2561369 -0.91410708 3.9582694
4.0180569 -0.91269588 3.9550242
4.5241261 -0.91806006 3.9548616
-2.730823 -0.90759301 3.9518046
-3.9587955 -0.89791012 3.956332
-3.5390689 -0.89138699 3.9528611
-2.9748354 -0.89490163 3.9554279
-2.7792439 -0.89657724 3.9542511
-2.6364927 -0.89042872 3.9558508
-2.1264102 -0.89761829 3.9559441
3.3871369 -0.8963697 3.9589086
3.5641201 -0.89192951 3.9544659
3.8037443 -0.89098144 3.9578586
3.8255224 -0.89306152 3.9598498
4.2397366 -0.89228559 3.9524693
-3.6818707 -0.88721061 3.9599342
-3.4718556 -0.88716578 3.9598103
-3.2618392 -0.88712144 3.9596875
-3.0518198 -0.88707674 3.959564
-3.0213363 -0.88560891 3.9562798
-2.8417974 -0.88703287 3.9594426
-2.631773 -0.88698804 3.9593179
-2.4217467 -0.8869431 3.9591942
-2.2117114 -0.88694334 3.9591944
2.6191351 -0.88694334 3.9591944
2.7425632 -0.88698614 3.9563129
2.8291724 -0.8869431 3.9591937
3.0391715 -0.88703287 3.9594426
3.2491672 -0.88712168 3.9596877
3.4591589 -0.88721061 3.9599345
3.6086698 -0.88575625 3.9527216
-2.6631916 -0.87504327 3.9583929
3.5270503 -0.87854838 3.9518161
-3.1363809 -0.8601954 3.955128
-3.0172033 -0.86952335 3.9553108
-2.82586 -0.86058474 3.9559305
3.9000878 -0.8605575 3.954721
-3.6368339 -0.85874414 3.9564419
-3.0387187 -0.85704368 3.9529643
2.5740445 -0.85890436 3.9564209
3.1254015 -0.84498119 3.9578445
-2.8086138 -0.82762134 3.9578562
3.9359012 -0.82941735 3.9593117
4.1862602 -0.8245225 3.9570966
-3.060956 -0.8126092 3.9500756
-2.8021784 -0.81113672 3.950603
3.0437717 -0.81498933 3.9587152
3.3631883 -0.815359 3.9578712
3.6899066 -0.81262344 3.9508176
-1.912751 -0.80582976 3.9547293
-3.5373092 -0.79209387 3.9520743
-2.4316654 -0.79877043 3.959568
-2.1010809 -0.7915107 3.9564195
-3.6629734 -0.78856909 3.9595275
-3.3566496 -0.78445733 3.9520948
-2.9995785 -0.7899878 3.9507062
-2.503129 -0.78297067 3.9572761
2.600579 -0.78846556 3.9599171
3.9280481 -0.76862264 3.9557226
-3.0648055 -0.75030565 3.9563057
2.6047869 -0.7546671 3.9542167
-3.0828063 -0.9317019 3.9645376
3.3130627 -0.93752551 3.9660721
-3.5814681 -0.92814493 3.9640782
3.3643773 -0.92932719 3.9600656
-2.9150848 -0.90136623 3.9625988
3.3970463 -0.90829039 3.9680903
3.4778068 -0.8985467 3.9695151
4.1260376 -0.89247572 3.9613485
4.2064753 -0.89622122 3.9650507
-3.8918839 -0.88725471 3.9600568
2.8953278 -0.88776809 3.9695289
3.3556669 -0.88939655 3.9636149
3.6691451 -0.88729954 3.9601805
3.8791742 -0.88729954 3.960181
4.0892019 -0.88729954 3.960181
4.2992296 -0.88729954 3.9601808
-2.1677892 -0.87174171 3.9612901
4.6407008 -0.87469339 3.9640837
3.1471865 -0.86176455 3.963793
3.8438358 -0.86801922 3.9636695
-3.5893793 -0.85710692 3.961149
3.0741806 -0.85733986 3.9693623
4.1833053 -0.85529125 3.9692817
-3.5571494 -0.83259505 3.9679344
-3.4837129 -0.83217824 3.961937
2.8368573 -0.83752394 3.9654129
3.0153515 -0.82405925 3.9682262
4.0081234 -0.82975185 3.9618821
-2.4343636 -0.81042588 3.9685297
-2.364471 -0.81115538 3.9606347
-3.6385674 -0.80543888 3.9672966
-2.7052927 -0.80208117 3.9650459
2.5755877 -0.80569911 3.9670532
3.1369903 -0.80190462 3.9661038
4.2289467 -0.80840945 3.9618165
-2.7581165 -0.79514039 3.9610529
-2.0924997 -0.79156685 3.9639039
3.0713511 -0.79593384 3.9643362
3.1476998 -0.79243982 3.9694245
3.1709473 -0.7964803 3.9647682
3.5939863 -0.79208362 3.9628968
3.9622443 -0.79669476 3.9676056
-3.8820019 -0.78714168 3.9690058
-3.6726062 -0.78718501 3.9688823
-3.4632092 -0.78722817 3.9687598
-3.253809 -0.78727138 3.968637
-3.0587289 -0.78589553 3.9651902
-3.0444074 -0.78731447 3.9685144
-2.8350031 -0.78735828 3.96839
-2.6255975 -0.7874012 3.9682679
-2.4161887 -0.78744483 3.9681437
-2.2067795 -0.78748775 3.9680216
2.6098545 -0.78740102 3.9682684
2.8192718 -0.7874012 3.9682679
3.0286722 -0.78735799 3.9683909
3.2380705 -0.78731531 3.9685118
3.4474442 -0.78722847 3.9687588
3.6568155 -0.78714204 3.9690046
3.8662052 -0.78709882 3.9691269
4.0756145 -0.78709853 3.9691281
4.2850246 -0.78709865 3.9691277
3.2720761 -0.7770443 3.965452
4.5527372 -0.76814473 3.9609489
-2.592787 -0.75165224 3.963402
-2.4281158 -0.74620491 3.9661267
3.5819783 -1.0001243 3.9705913
3.8239417 -1.0001252 3.9705913
4.0659075 -1.0001235 3.9705913
4.3078718 -1.0001227 3.9705913
-3.9189377 -0.99995077 3.9706156
-3.6769726 -0.99995065 3.9706156
-3.4350066 -0.9999488 3.9706156
-3.1930399 -0.99994963 3.9706156
-2.9510748 -0.99994957 3.9706156
-2.7091081 -0.99995041 3.9706156
-2.4671445 -0.99994922 3.9706156
2.6141388 -0.99994957 3.9706156
2.8561049 -0.99994981 3.9706156
3.0980706 -0.99995017 3.9706156
3.3400359 -0.99994993 3.9706156
-2.2257714 -0.98969281 3.9720604
3.3959448 -0.96044397 3.9724007
-2.6170988 -0.95983779 3.9729705
-2.2448575 -0.95907205 3.9742081
3.1419499 -0.95859593 3.9748371
-3.7705021 -0.93033922 3.9772298
-3.7440348 -0.93223405 3.9704306
-2.2440693 -0.93738461 3.9746852
2.7077665 -0.9301852 3.9772141
-2.8827307 -0.92351258 3.9789221
2.8095617 -0.92385828 3.9710338
-3.9740057 -0.91354823 3.9757626
-2.2738698 -0.91134572 3.9740224
2.9111712 -0.91354775 3.9757624
2.9622312 -0.911201 3.9770427
-3.6769726 -0.90004873 3.9706156
-3.4350066 -0.90005058 3.9706156
-3.3798912 -0.90899736 3.9760554
-3.1930399 -0.90004975 3.9706156
-2.9510748 -0.90004981 3.9706156
-2.7091081 -0.90004897 3.9706156
-2.4671445 -0.90005016 3.9706156
-2.2251778 -0.90004927 3.9706156
-1.9832112 -0.90004849 3.9706156
3.0980706 -0.90004921 3.9706156
3.3068156 -0.90638089 3.9743214
3.3400359 -0.90004945 3.9706156
4.1599817 -0.90354645 3.9752069
4.5498662 -0.90004933 3.9706156
-2.9102616 -0.89165902 3.9719341
3.150197 -0.89567733 3.9706557
3.5819783 -0.89987504 3.9705913
3.6404836 -0.89933825 3.9747779
3.8239417 -0.89987421 3.9705913
4.0659075 -0.89987588 3.9705913
4.3078718 -0.89987671 3.9705913
-3.4855278 -0.88643175 3.975306
-2.1465378 -0.88249934 3.9708102
-2.3291471 -0.87192976 3.9748352
3.5916986 -0.85553694 3.9777992
3.6188304 -0.85723412 3.9773846
4.4257693 -0.8575325 3.9707608
3.2710209 -0.83025527 3.976505
-3.7321224 -0.82295245 3.9724405
-3.7121351 -0.82591248 3.9788504
2.6692891 -0.82295227 3.9724417
-3.7047939 -0.8120389 3.9774446
4.2753849 -0.81371212 3.9737191
-2.5842919 -0.80734301 3.9792914
-2.5172641 -0.80287158 3.9746907
4.0743084 -0.80852246 3.9728127
-3.0835915 -0.79484475 3.9705117
3.7313802 -0.79089159 3.9759357
4.1676054 -0.7924484 3.9703174
4.213141 -0.78821588 3.9708781
-2.7329879 -0.77609837 3.9732172
-2.1921296 -0.77698493 3.979805
-2.1771314 -0.77908015 3.976356
3.4821167 -0.77894229 3.9744017
-3.243809 -0.7657398 3.9744356
3.075357 -0.76179528 3.9744306
-3.1917307 -0.75953352 3.9743955
4.0448976 -0.74608982 3.9706173
-2.4771149 -0.95658147 3.9819589
3.2749443 -0.93271816 3.9843023
3.827848 -0.93821502 3.981226
-3.0833285 -0.92774606 3.9862771
3.1569238 -0.92527819 3.9818153
4.277051 -0.92944646 3.9895511
-3.6067805 -0.91669512 3.9817686
-3.5834813 -0.91213131 3.986444
-3.0617781 -0.90923655 3.9810553
-2.6535692 -0.90359974 3.9800448
4.5789499 -0.9005084 3.9840524
3.2482736 -0.89396489 3.9895346
3.9516511 -0.89267921 3.9849668
-2.9993715 -0.8848871 3.9813972
-2.4994831 -0.88338548 3.9875841
3.387579 -0.88861334 3.9867065
4.2174501 -0.88654816 3.987221
-2.6497614 -0.87586772 3.980758
-2.1460071 -0.87798166 3.9846807
-2.624007 -0.86014462 3.983727
3.3975379 -0.86035043 3.9830499
3.0033989 -0.85560799 3.9861929
3.1177306 -0.85884809 3.9859288
4.1605034 -0.85730004 3.9854369
-3.0828319 -0.8497746 3.9854698
-3.3019726 -0.83216715 3.9878862
3.3577299 -0.83805943 3.9806161
3.6559711 -0.83342683 3.9814246
-2.3038588 -0.82723033 3.9801283
3.5288877 -0.82926035 3.9836369
4.470521 -0.8241843 3.9844296
4.3641052 -0.81634021 3.9800549
-3.7349217 -0.80895472 3.9858167
-2.0606308 -0.80970263 3.9867454
2.517199 -0.80586064 3.9895306
2.6722119 -0.80927813 3.9855437
-3.0227079 -0.79652035 3.984786
-2.432462 -0.79810005 3.983181
4.0631766 -0.79350984 3.9839144
-3.0420833 -0.78959727 3.9846208
2.8225374 -0.78814065 3.9880791
3.2037075 -0.78719234 3.9830122
3.2830825 -0.78953439 3.9819252
-3.9618256 -0.77594 3.9865479
-3.1590366 -0.77542114 3.9858422
-2.8492169 -0.77950609 3.9881003
2.899498 -0.77621031 3.9864571
4.081965 -0.77271032 3.9847107
4.523941 -0.96209109 3.9977906
-3.5849414 -0.95675904 3.9982929
-3.0325642 -0.9567548 3.9901114
-3.4896111 -0.93200696 3.9904044
-3.1267722 -0.93102819 3.9940271
4.333694 -0.9387567 3.9961028
3.1319561 -0.92339826 3.9935524
-3.6235859 -0.9128747 3.9934835
-2.5053372 -0.91091073 3.9949079
2.9464655 -0.91059589 3.9994662
3.1799936 -0.91470814 3.9914939
3.809845 -0.91269588 3.9984968
-3.5214593 -0.90035236 3.9923236
-2.1693997 -0.89770007 3.9927607
3.1725464 -0.89416021 3.9994743
3.4273708 -0.89373672 3.998728
3.9574728 -0.89761984 3.9902635
-3.6373711 -0.8837654 3.9986227
-2.9545484 -0.88927174 3.9930406
3.4057565 -0.88517272 3.9928539
3.5933921 -0.88857746 3.9999702
-3.3885815 -0.87026936 3.9913023
3.7431364 -0.8753314 3.9980145
4.3050852 -0.8622582 3.9965498
-3.4812727 -0.85567939 3.9945388
-3.681669 -0.83062351 3.9934146
2.6223199 -0.83607733 3.9927816
3.8696172 -0.83845437 3.9955685
-2.2382936 -0.82772112 3.9999256
3.2382863 -0.82251245 3.9962244
3.3386507 -0.82368755 3.9907148
-2.9259455 -0.81187093 3.990963
-2.6577501 -0.81183743 3.9968426
3.3119316 -0.81550562 3.9933741
4.0379934 -0.81581235 3.9970818
-2.9578421 -0.80213672 3.9945037
-2.3554366 -0.80991638 3.9981587
3.4231224 -0.80019498 3.9966536
4.1493187 -0.80236495 3.9977207
-3.7241781 -0.7974683 3.9956892
-2.9229283 -0.79498422 3.9945426
-2.0797529 -0.79229164 3.9933624
2.6605003 -0.79806519 3.9954853
3.4231572 -0.79428321 3.9978387
4.0739675 -0.79295588 3.9915755
4.289052 -0.79200792 3.9934227
-3.7058506 -0.78529286 3.9920146
-3.4124305 -0.78645933 3.9941792
-2.9387984 -0.7822476 3.9955568
3.1482017 -0.78787547 3.9970477
-2.2868533 -0.77250075 3.9985816
3.087909 -0.77323365 3.9912148
3.4373729 -0.77506691 3.9943092
3.7228217 -0.77624524 3.9969728
4.1069889 -0.77204919 3.9982324
-3.9522252 -0.96029353 4.0009065
2.8893909 -0.96029305 4.0009065
4.2949758 -0.96198821 4.0077925
-2.7822077 -0.95891362 4.0036182
3.0714545 -0.95692998 4.0063558
3.6901596 -0.9585979 4.0045824
4.2130332 -0.95512307 4.0079427
-2.1386261 -0.93060732 4.0030723
4.4835138 -0.93413246 4.0031433
-3.4439201 -0.9230628 4.0026226
-2.7191644 -0.92668378 4.0029898
-2.579695 -0.92721581 4.0086632
4.3466673 -0.92053211 4.0008135
-3.0302665 -0.91616255 4.0079784
3.6216726 -0.91075063 4.0048609
-2.5544896 -0.90217543 4.0027575
3.799607 -0.90721488 4.0088606
-3.1197629 -0.89481592 4.0052032
-2.9917555 -0.89037001 4.0032134
3.8061917 -0.89711517 4.0073047
-3.8060591 -0.88753819 4.0029864
-2.9110801 -0.88135815 4.0037217
-2.7859712 -0.88243282 4.0043783
-2.2220383 -0.88902938 4.0008087
-2.2163615 -0.88892406 4.0096073
2.7432485 -0.88756037 4.0031018
3.2432802 -0.87623954 4.0062294
-3.7011402 -0.86282313 4.0092015
-3.521925 -0.86575019 4.0009708
4.0756607 -0.86217809 4.0065479
-2.8996196 -0.85575056 4.0028377
4.0711479 -0.84487569 4.000535
-3.0432692 -0.83157945 4.0090089
-2.5550616 -0.83128393 4.0000367
3.0445228 -0.82876396 4.0056248
-3.2903733 -0.81692672 4.0080256
3.1561632 -0.81288218 4.0027943
3.294225 -0.81114912 4.0049343
-3.2350016 -0.80880922 4.0030909
-2.4216735 -0.80394959 4.0084157
-2.3499203 -0.80303293 4.0048103
3.0796783 -0.80659151 4.0020342
4.4179254 -0.80464375 4.0008264
3.0470605 -0.79771733 4.0019522
3.5683107 -0.79787481 4.0094194
-3.2089865 -0.78998768 4.0092316
-2.9249942 -0.78275347 4.0014982
-2.4261816 -0.78295386 4.0068955
-2.1356246 -0.78903788 4.0028105
3.8107672 -0.7883957 4.0060873
-2.8361883 -0.76056719 4.0027666
4.0072446 -0.76380563 4.0099049
4.0649023 -0.96188438 4.0178442
3.6186125 -0.95611739 4.0153761
-3.2327032 -0.93177629 4.0105743
-2.495446 -0.93170273 4.0105004
-2.4462948 -0.93543673 4.0105872
3.4579008 -0.92293143 4.0163183
3.798903 -0.92906356 4.0114141
-3.2675786 -0.91208529 4.0114388
-3.1780443 -0.90466356 4.0157146
3.6154678 -0.90828991 4.0136938
-3.4639835 -0.89581096 4.016552
-2.7741418 -0.89483476 4.0114012
3.1893382 -0.89636946 4.0141878
-2.3701203 -0.88893497 4.0138431
-1.9136643 -0.88117933 4.0101199
4.1490822 -0.88444448 4.0139966
-2.1090043 -0.86009055 4.0124722
2.8924348 -0.86030096 4.0115004
3.8451254 -0.8620975 4.0165911
-2.7623267 -0.85901773 4.0145588
-2.6627707 -0.85106266 4.0135517
-2.321286 -0.85599124 4.0111642
3.6642947 -0.85878927 4.0155926
4.5245171 -0.84705186 4.0130739
2.7624223 -0.83286285 4.0192103
3.6655059 -0.82331133 4.0134487
3.707016 -0.81517458 4.0144124
-3.4062021 -0.80138791 4.014668
4.2925048 -0.80852169 4.0183706
-3.754477 -0.79454273 4.0153971
-2.5578098 -0.79514015 4.0170345
-2.3593285 -0.7915107 4.0103388
2.6915245 -0.79462332 4.015419
2.973485 -0.79654467 4.0198426
-3.660445 -0.7852897 4.0137506
-2.3715792 -0.78976345 4.0129709
-1.9114438 -0.78129804 4.0136862
4.4296942 -0.75804949 4.0182767
-3.4430838 -0.9601419 4.0295582
3.8337116 -0.96178067 4.0279436
4.2042603 -0.96058679 4.028399
3.0291171 -0.95549059 4.0246119
4.1611347 -0.95727259 4.0223503
-3.4299254 -0.93210936 4.0221834
-2.9946189 -0.93616784 4.0258179
2.9488194 -0.922607 4.0266004
4.2926388 -0.92380905 4.0244169
-2.906004 -0.91139007 4.0297232
3.4475005 -0.9155314 4.025949
3.5564678 -0.91156769 4.0224071
-3.278425 -0.90923655 4.026289
3.4888504 -0.90025568 4.025763
3.7808464 -0.90271068 4.0270047
4.2145605 -0.90282774 4.0261374
-3.8337121 -0.8944757 4.0218754
-3.7903576 -0.8980093 4.0255213
-3.1688206 -0.89165974 4.025918
-2.9895196 -0.89525974 4.0251369
-2.1467085 -0.89244521 4.0247588
2.7266788 -0.89740205 4.0253181
2.7708769 -0.89447522 4.0218744
-3.6356921 -0.88447368 4.021759
-2.7814934 -0.87998116 4.0231738
-1.9005044 -0.87653244 4.0291939
2.8321681 -0.87581891 4.0225277
2.8531055 -0.87677628 4.0202022
4.0144873 -0.87177694 4.021965
3.6134958 -0.86185908 4.0266581
3.0115106 -0.85656118 4.0287662
-2.7840438 -0.83143711 4.0283957
-2.5022264 -0.83606803 4.0253782
-2.4152756 -0.83208126 4.0261769
-3.6431603 -0.82453084 4.0214891
-3.6177478 -0.82838702 4.0277948
-3.383867 -0.82469046 4.0216126
-3.1245527 -0.82469046 4.0216126
-2.8652248 -0.82453084 4.0214891
-2.6059132 -0.82453132 4.0214896
-2.3466024 -0.82453156 4.0214896
-2.2587261 -0.8246454 4.0227737
-2.0872889 -0.82453084 4.0214891
2.5549459 -0.82826042 4.0278511
3.0989931 -0.82484925 4.0217357
3.3583093 -0.82484829 4.0217347
3.6175976 -0.82468903 4.0216117
3.7639296 -0.82466888 4.0207791
3.81387 -0.82192779 4.0203481
3.876884 -0.8245306 4.0214891
4.1361942 -0.8245306 4.0214891
4.3955064 -0.82452917 4.0214882
4.6548185 -0.82452989 4.0214887
3.5762565 -0.81601405 4.0275397
2.8031874 -0.80999708 4.0260663
-2.5804803 -0.79050589 4.02211
-2.4111667 -0.79769033 4.022831
3.4063277 -0.79335088 4.0218849
4.1568294 -0.79967833 4.0268326
3.9471865 -0.78821468 4.0264053
3.6014206 -0.96183538 4.0380669
-3.5050478 -0.95567107 4.0328751
-3.3223455 -0.95891643 4.0332041
-2.0722787 -0.9594667 4.0398512
4.2413368 -0.95843589 4.0344629
-2.9732037 -0.93140388 4.0309649
3.3156586 -0.92880177 4.0335646
3.7873244 -0.92262185 4.0393095
-3.3736353 -0.91213155 4.0302577
-2.7978313 -0.91156769 4.0308924
-2.4464793 -0.91577119 4.0344038
-1.8743916 -0.91281641 4.0339947
4.4411626 -0.91811037 4.0351305
4.2902246 -0.90998149 4.0333056
-3.5964842 -0.89533329 4.0383277
2.5338297 -0.89513785 4.0381498
3.0841177 -0.89804292 4.0357666
4.2077312 -0.89267969 4.0384331
4.234477 -0.89934373 4.033021
4.2582622 -0.8946681 4.0393004
-3.4431975 -0.88793993 4.0346713
3.2617331 -0.88787401 4.038888
-2.8652844 -0.87478697 4.0360432
-2.5080235 -0.87018943 4.0375924
3.4023809 -0.87478232 4.0366135
-2.5593743 -0.86067283 4.0301909
3.3807166 -0.86177772 4.0368013
4.2035556 -0.86060905 4.0388346
-2.3042424 -0.85961759 4.0385113
3.9855146 -0.83380347 4.0374107
3.9958484 -0.82277107 4.0364065
-2.9467463 -0.81239581 4.0325108
-2.7143121 -0.81414056 4.0345573
3.3710635 -0.81442642 4.0320497
3.9554291 -0.81055903 4.03304
-3.9513481 -0.80895317 4.0310059
-3.862432 -0.80050957 4.0352407
2.7991078 -0.80003572 4.0354457
2.8886013 -0.8091712 4.0308228
3.5740118 -0.80763769 4.0361853
4.015852 -0.80067229 4.0313892
-2.4790354 -0.79311585 4.0340643
-2.0073256 -0.79728687 4.0379367
3.4192643 -0.79430008 4.0307069
-2.7787027 -0.78946638 4.0394373
3.2834122 -0.78786349 4.0310268
-3.2721949 -0.77424073 4.0342865
-2.886461 -0.77102178 4.0371675
4.4414396 -0.77894759 4.0389876
3.3679726 -0.96172953 4.0482655
-2.9215145 -0.95567894 4.0411673
-2.3412764 -0.95568657 4.0494132
-3.899919 -0.93480945 4.0444689
-3.6753535 -0.93480921 4.0444684
-3.5331163 -0.93674517 4.040761
-3.4507866 -0.93480992 4.0444689
-3.2262187 -0.93480968 4.0444689
-3.0016508 -0.93480897 4.0444684
-2.7770836 -0.93480968 4.0444689
-2.5525184 -0.93480968 4.0444689
-2.3279617 -0.93467188 4.0444088
2.6125371 -0.93467188 4.0444088
2.8371239 -0.93453276 4.0443478
3.0616927 -0.93453252 4.0443478
3.2862623 -0.93453276 4.0443478
3.5108089 -0.93467116 4.0444083
3.6096294 -0.93311363 4.040771
3.7353768 -0.93467069 4.0444078
3.9599457 -0.93467069 4.0444078
4.1845126 -0.9346714 4.0444083
2.7444763 -0.92543054 4.0449591
-2.5385714 -0.91057682 4.0482545
3.6016331 -0.91269636 4.0419698
4.1485577 -0.91273761 4.0445776
4.6233907 -0.91456032 4.0405903
-2.1999969 -0.90284193 4.0422492
4.2831068 -0.90820384 4.0428991
-3.1133819 -0.89945805 4.0461359
-2.6462266 -0.89772856 4.0425754
3.4131861 -0.89772695 4.0488191
4.3393025 -0.89590275 4.0425239
-3.7999556 -0.88871574 4.0458894
-2.893115 -0.88070512 4.0419593
2.73701 -0.88867962 4.0458455
3.1214039 -0.88834536 4.0426393
-3.5426707 -0.87855715 4.0497284
-3.1887336 -0.87404215 4.0420504
2.4802308 -0.87835401 4.0492949
2.7921495 -0.87346828 4.0424161
3.8085153 -0.87175429 4.0494576
-3.4475911 -0.86024803 4.0400982
-3.1437719 -0.86825705 4.0454793
3.1468012 -0.86169475 4.0469933
-3.3008571 -0.85896218 4.0440636
-2.5667403 -0.85952544 4.0493126
-1.9187814 -0.85637903 4.0440392
4.1540194 -0.85762334 4.0464807
4.2137098 -0.85856938 4.0454359
-3.0472889 -0.83649218 4.0403996
-2.5212116 -0.83113897 4.0489635
4.3008265 -0.83747911 4.0485115
-3.3067632 -0.82637179 4.0412416
-2.8094635 -0.82408869 4.0464964
2.9481575 -0.81277955 4.0463104
3.0298886 -0.81376719 4.0499139
3.4147663 -0.8117227 4.0485864
-2.9478478 -0.80470181 4.0438428
-2.5701263 -0.80991495 4.042985
-3.6231306 -0.7963028 4.04743
3.9336481 -0.79076701 4.0474253
4.2849317 -0.79512656 4.0471835
4.3328376 -0.79646784 4.0415392
3.7338102 -0.78617764 4.0438957
-3.5266252 -0.77898097 4.0485573
2.8089502 -0.77644402 4.0428996
4.0951295 -0.77477407 4.0400305
-3.4997776 -0.76565731 4.0457749
2.9052749 -0.76335156 4.0434961
4.2358003 -0.7660796 4.0417647
3.1333838 -0.96162617 4.0585127
3.7023215 -0.96043658 4.0569019
-2.9313333 -0.9599911 4.0583568
-2.3342612 -0.95935124 4.0506611
-2.7112179 -0.93116838 4.0515327
2.9992235 -0.93717647 4.0554233
4.3959632 -0.93471408 4.0567122
4.4097528 -0.93243611 4.0511703
-3.8900437 -0.92853737 4.0559559
2.8272412 -0.92866325 4.0560102
3.5231314 -0.92228389 4.0509186
3.7110906 -0.91623068 4.0599113
4.4641161 -0.91666341 4.0544419
-3.6922932 -0.90579534 4.0507665
-2.4238513 -0.9068737 4.0552173
2.6293616 -0.90561843 4.0506034
3.8338861 -0.90829134 4.0592985
-3.3667684 -0.89143217 4.0594826
3.8609843 -0.89279211 4.055728
3.9143016 -0.8904748 4.0551395
-3.6111603 -0.88753796 4.0580044
-3.4613512 -0.88830185 4.0526581
-2.0981734 -0.88239241 4.0536823
-1.9583732 -0.88902867 4.0558596
2.548281 -0.88749266 4.0577693
3.8063691 -0.88864851 4.0596247
2.7378325 -0.86606324 4.0538054
2.9117424 -0.86161327 4.0572357
-2.1443932 -0.85691136 4.0599389
-3.5826333 -0.83704472 4.0551386
-2.906184 -0.83153629 4.0577545
2.519691 -0.8373208 4.0551057
4.2141891 -0.83454251 4.0542469
4.6275067 -0.83642215 4.0573006
-3.1228385 -0.82800496 4.0502043
4.3299923 -0.82238698 4.0596495
4.222868 -0.81336355 4.057972
4.044745 -0.80370784 4.0522451
-3.3655279 -0.79200554 4.0585074
3.1810112 -0.7989018 4.0505142
3.2635186 -0.79913521 4.0563898
-3.8335648 -0.78921437 4.0542364
2.770509 -0.78928381 4.0541468
2.9542928 -0.7879827 4.0511718
-2.5816426 -0.77026224 4.0589399
-2.0997655 -0.7591663 4.0551009
3.0453525 -0.75694132 4.0550933
2.8976445 -0.96152097 4.0688105
-3.8653302 -0.95891851 4.0629444
-2.5975366 -0.95940453 4.0614996
2.8025889 -0.9585939 4.0629025
-2.4954059 -0.93102688 4.0613699
3.5190098 -0.93787169 4.06986
-2.3227968 -0.92698681 4.0646563
3.7574015 -0.92904705 4.0609841
4.1204109 -0.92230821 4.0625563
-3.0860498 -0.91232955 4.066339
-2.50668 -0.9122349 4.061759
3.8870907 -0.91759694 4.061183
-2.4081295 -0.90271068 4.0613966
4.0534883 -0.90072083 4.0642495
-3.2015586 -0.8903693 4.0618472
-2.5734465 -0.8947686 4.0673766
-2.5146146 -0.89339507 4.0693951
2.9915402 -0.89636922 4.0694675
4.3324418 -0.88048255 4.06389
-2.9373212 -0.86019737 4.0688405
2.6755323 -0.86152971 4.0675268
3.4167719 -0.86369503 4.0624976
3.7030418 -0.86055744 4.0672836
4.2438302 -0.86575067 4.0682864
-2.8305318 -0.8592636 4.0601454
-2.7005744 -0.85697758 4.067874
-2.2558539 -0.83069456 4.0697107
3.0456386 -0.83786142 4.0695858
4.3335042 -0.82899129 4.0606685
4.4559393 -0.82616478 4.0618372
-3.7461967 -0.81320179 4.0680122
-3.2313633 -0.81305826 4.0676498
-2.2017016 -0.81317449 4.0614119
-2.1269765 -0.81574094 4.0609517
2.6834364 -0.81309915 4.0680537
3.8368292 -0.81651473 4.0612178
4.1291366 -0.81857741 4.0608616
4.059041 -0.80849433 4.0698471
4.6255846 -0.80996251 4.0615282
-3.8413935 -0.79542232 4.0691681
-3.537324 -0.79645896 4.0637217
-3.4184461 -0.79005647 4.0676417
-3.364965 -0.79328007 4.06779
-2.6175737 -0.79151022 4.0642576
2.7787404 -0.79561496 4.0689902
-2.1401103 -0.78230643 4.0624957
4.023334 -0.7883262 4.0656276
-3.2172937 -0.76802349 4.0671558
-1.9652078 -0.75831747 4.0698748
-3.7235816 -0.96141571 4.0791607
-2.8622432 -0.95928627 4.0724201
-3.7737291 -0.93251264 4.079278
-2.4466381 -0.93093187 4.0723047
4.157907 -0.9343698 4.076457
-3.3962748 -0.92814469 4.0785336
-2.5238328 -0.92382431 4.0764465
3.0937696 -0.92975843 4.0772023
4.104291 -0.92181861 4.0754628
-3.1637921 -0.91213202 4.0740714
4.1385136 -0.91603851 4.0720873
-3.4950726 -0.90923774 4.0715237
-3.0828006 -0.90830112 4.0780377
3.395066 -0.90185905 4.0797071
-3.4445856 -0.89307761 4.0744314
-3.4273791 -0.89165902 4.0799026
-2.9713089 -0.89648139 4.0763474
4.5150237 -0.88595915 4.0703602
-3.8704736 -0.87978911 4.070272
-3.5010278 -0.86128706 4.0778465
-3.0659647 -0.8657515 4.070703
-2.0971375 -0.86205196 4.0781727
4.1180964 -0.86155355 4.0712085
-3.8421786 -0.85874265 4.0737457
-3.2536869 -0.85704154 4.0757642
-3.0957575 -0.85916829 4.0710583
-2.1488142 -0.85890985 4.0788684
2.7793913 -0.85890502 4.0737252
4.3976102 -0.85521233 4.073266
4.3655629 -0.84533644 4.0741358
3.1009116 -0.83310127 4.0757456
3.97542 -0.83427227 4.0739698
-3.3665323 -0.82352418 4.0704918
-2.622539 -0.82762074 4.0728574
3.6614966 -0.82999337 4.0769258
3.826978 -0.82975209 4.0738358
-2.5066688 -0.81187057 4.0785036
4.0084057 -0.81317168 4.0703459
-3.4636722 -0.80552459 4.0784955
3.1049864 -0.80906236 4.0761023
-3.838891 -0.79648089 4.0751295
-3.404093 -0.79991657 4.0719838
-2.8034921 -0.79800713 4.0728884
-2.3575008 -0.79514039 4.0730157
2.7760394 -0.79654503 4.0750237
3.6592479 -0.79256618 4.0763912
3.7363527 -0.79821938 4.0777144
3.8035712 -0.79853845 4.076848
4.2156639 -0.79791009 4.0769749
3.9491744 -0.78496879 4.0753093
4.150681 -0.78701198 4.0751247
-3.6946592 -0.77857351 4.0752945
2.63237 -0.77886832 4.0749907
-2.5704041 -0.7605679 4.0770488
2.8113987 -0.76600552 4.0759091
-3.4855163 -0.96130759 4.0895615
3.1978359 -0.96044326 4.0855703
-3.1283286 -0.95916855 4.0833979
-2.4169552 -0.95983827 4.0873027
4.0297294 -0.93842006 4.0840321
-2.0097218 -0.92605847 4.0899715
3.8672061 -0.92446995 4.0881224
-3.1473689 -0.91164219 4.0898943
3.3261507 -0.9172219 4.0874462
3.3934205 -0.91259098 4.0853539
-2.8482318 -0.9017427 4.0819917
3.1334939 -0.90646887 4.0847392
3.0266562 -0.89859521 4.0896196
3.8816218 -0.89807153 4.0831852
4.0237932 -0.89316183 4.0861917
4.0676389 -0.87416184 4.0816917
4.4112644 -0.87854832 4.080256
-3.6800697 -0.86234403 4.0823765
-3.2624898 -0.86120206 4.0882387
-3.3623645 -0.85907471 4.0820284
4.5547647 -0.85521781 4.0885201
-1.9100256 -0.84691739 4.0892539
3.5624745 -0.83825767 4.0838308
4.5983224 -0.83148247 4.087368
-2.2100315 -0.8263607 4.087122
3.3462772 -0.8251431 4.0839367
-3.3942661 -0.81262743 4.08639
-2.8356285 -0.81261015 4.0893364
2.7401528 -0.81267488 4.0898294
3.5735898 -0.81793934 4.0869393
-2.7848179 -0.80991411 4.0878115
-2.2763553 -0.80671388 4.0828695
-3.5714061 -0.78445661 4.0887728
-3.0779653 -0.7892921 4.0813518
3.3393998 -0.78569722 4.0817919
3.6812334 -0.78821516 4.0819345
4.2866669 -0.78099298 4.0857363
-3.0007057 -0.76697278 4.080739
3.4901562 -0.76392031 4.08495
-3.1864698 -0.75445342 4.0892229
-3.2463098 -0.96136302 4.099987
-3.3957336 -0.95922053 4.094408
-2.4491968 -0.95907182 4.0909367
-2.1354275 -0.95657885 4.0975523
3.3484521 -0.95859689 4.092802
-3.5057561 -0.93076074 4.0931387
-2.1793447 -0.93054789 4.0933084
2.4429214 -0.93076038 4.0931387
3.917603 -0.93402243 4.0963879
3.9411292 -0.93335843 4.096776
4.531373 -0.93802023 4.0978565
2.8526697 -0.9209044 4.0960317
3.8079834 -0.91540408 4.0900011
3.9709358 -0.91692209 4.0933886
-2.4749539 -0.90351105 4.093606
-3.57388 -0.89632487 4.0981421
4.4638119 -0.89267826 4.0919018
-2.33902 -0.88143355 4.0985937
2.8551719 -0.88821185 4.0984039
3.9289854 -0.88484669 4.0947738
-3.2171867 -0.87416232 4.0923047
-3.022773 -0.86111838 4.0986843
-2.4244392 -0.8601436 4.0977306
3.1999927 -0.86035126 4.0958977
4.555088 -0.8669517 4.0902395
-3.6302922 -0.85880953 4.0930309
-1.9616524 -0.85827005 4.0987105
3.2879696 -0.85733891 4.0914888
3.8320343 -0.85723698 4.0991783
3.9603503 -0.85528862 4.0966439
-1.9877756 -0.8303895 4.0906868
-1.9599946 -0.83062458 4.09763
3.0022669 -0.83036387 4.0929317
3.7343969 -0.83399832 4.0938778
4.0703387 -0.83878112 4.0978136
4.3120041 -0.83417749 4.0928783
-3.9300494 -0.82295358 4.0947647
-2.1167247 -0.82735789 4.0957026
-2.0566659 -0.82475913 4.0989056
2.8672156 -0.82295263 4.0947666
3.3468041 -0.82913637 4.096242
-3.8029966 -0.81246853 4.0900025
4.0936489 -0.81711519 4.0944209
3.7546053 -0.80122137 4.0916619
-3.8630211 -0.79978299 4.0909052
-3.2906601 -0.79627979 4.0943217
-2.4678051 -0.79373318 4.0957141
2.8001862 -0.79978228 4.0909081
3.00934 -0.79929066 4.0927982
3.4735494 -0.79918504 4.092145
4.2178383 -0.79728734 4.0994282
-2.7204945 -0.78297043 4.0956154
-2.5153251 -0.78933573 4.0942531
-2.3268683 -0.78178096 4.0973077
-3.8276432 -0.77232707 4.0971937
2.7648077 -0.77232659 4.0971947
4.1910443 -0.7613616 4.0939279
3.491051 -0.75465524 4.099328
4.1587758 -0.75813723 4.0942173
-3.6646068 -0.95910215 4.1055012
-2.6933486 -0.9565829 4.1054821
2.6018436 -0.95893186 4.1055269
-2.8677979 -0.93129104 4.1087146
