# .PCD v0.7 - Point Cloud Data file format
VERSION 0.7
FIELDS x y z
SIZE 4 4 4
TYPE F F F
COUNT 1 1 1
WIDTH 1463
HEIGHT 1
VIEWPOINT 0 0 0 1 0 0 0
POINTS 1463
DATA ascii
0.55491066 -0.9110688 3.2393398
-2.9741809 -0.90468383 3.2372613
-2.3182769 -0.9013657 3.2379944
0.0057784319 -0.9040761 3.233439
1.5957552 -0.90136379 3.2379959
-2.8329682 -0.89661026 3.2328241
-2.1632593 -0.8942169 3.2381959
1.4407399 -0.8942169 3.2381949
-2.3404472 -0.88507283 3.2329583
-1.0361575 -0.88527787 3.2307737
0.032165036 -0.88703215 3.2316024
-2.9500432 -0.87591922 3.2312145
-0.1286824 -0.87422287 3.2385464
-2.5861049 -0.86535513 3.2323971
0.10847673 -0.86085057 3.2378902
-2.1943679 -0.85974634 3.2340553
-2.1000814 -0.85757279 3.2321551
1.3783137 -0.85715246 3.2334013
-2.7289801 -0.83239293 3.2350578
0.0064445734 -0.83529758 3.2353439
-2.8810191 -0.82430643 3.2396111
-2.6422145 -0.82757366 3.2333415
-2.0075064 -0.81230509 3.2373741
1.2850871 -0.81219077 3.2373781
1.4465061 -0.81273663 3.2300007
-1.5641361 -0.80819392 3.2358773
0.84161496 -0.8081944 3.2358756
-2.1103036 -0.79388762 3.2354569
-1.6725674 -0.79858774 3.2351303
0.95020175 -0.79877388 3.2349503
1.3878617 -0.79414105 3.2357676
-2.1671572 -0.78118765 3.2358994
-1.2540841 -0.78265488 3.2390552
0.5312171 -0.78222144 3.2384605
1.4445405 -0.78107738 3.2357497
-2.372592 -0.77792352 3.2363801
1.6504987 -0.77779633 3.2362497
0.13390309 -0.96070004 3.2474532
-2.7433329 -0.95952755 3.2482028
-2.0869911 -0.95794052 3.2417963
1.364454 -0.95777482 3.2418633
-2.1741681 -0.93302035 3.24823
0.098981023 -0.93059337 3.2425816
1.4515834 -0.93287182 3.2482929
-2.0480309 -0.92470145 3.2495947
1.3254526 -0.92483389 3.2496586
-2.3652039 -0.9094907 3.2452784
-0.31017566 -0.90713447 3.2412133
-0.26174867 -0.9080444 3.2410369
1.6444887 -0.90933061 3.2430959
-1.3224189 -0.89392519 3.2498112
0.12579319 -0.89965832 3.2492285
0.59993196 -0.89379859 3.2499652
-1.9485277 -0.88449866 3.2422485
-0.25381786 -0.88517296 3.2463956
1.2261347 -0.8845914 3.2427461
-2.2671726 -0.86067164 3.2473979
-2.1558466 -0.86512363 3.2471704
-0.30536747 -0.8601349 3.240809
0.35885435 -0.86076063 3.2463758
1.4330082 -0.86489731 3.2478414
-2.7786424 -0.82880652 3.2414842
0.1249159 -0.82945585 3.2495928
0.13821238 -0.8267287 3.2446728
-0.10729197 -0.81112242 3.2446251
-2.3437216 -0.79315972 3.2480462
-1.9460371 -0.79399651 3.2454712
-1.7222071 -0.79343438 3.2427881
0.99956721 -0.79351234 3.2427561
1.2234896 -0.79406214 3.2453582
-2.3729088 -0.78540981 3.2404408
-2.0761721 -0.78663635 3.2477806
-1.2283394 -0.78495479 3.2444119
-0.17347822 -0.78553325 3.2406349
0.50537944 -0.78558826 3.2452822
1.3535171 -0.78684592 3.2480681
-1.5367783 -0.77441126 3.2431192
0.0069298614 -0.77999061 3.2498052
0.81410444 -0.77445549 3.2431633
-1.1075325 -0.96075499 3.2559657
0.38506663 -0.96059197 3.2559862
-2.6280384 -0.95794219 3.2517385
0.1155442 -0.95998168 3.2548463
-1.6508014 -0.9269799 3.2541144
-0.068098098 -0.92954183 3.2517352
0.92836493 -0.92723501 3.2542346
-2.5962467 -0.91175914 3.2573314
-0.94149017 -0.91660726 3.2537074
0.21909052 -0.91631186 3.253932
-2.1842031 -0.90407658 3.2538877
0.094030201 -0.90646404 3.2542582
-2.4223742 -0.8923673 3.2534463
-1.2602491 -0.89044046 3.2514248
0.18046597 -0.89015633 3.252728
0.53762746 -0.89037263 3.2513506
1.6998544 -0.89236766 3.2534456
-1.3483292 -0.88493973 3.2504649
0.62534189 -0.88522404 3.2507725
1.345639 -0.88907671 3.2563038
-2.3425524 -0.87757069 3.2542417
1.620463 -0.87770319 3.2541075
-1.3330324 -0.86066937 3.2549028
0.61051226 -0.86066985 3.2549028
-2.2736106 -0.85712671 3.2586665
-0.33059222 -0.85133827 3.251456
1.5510896 -0.85712671 3.258667
1.5852196 -0.84497011 3.2523887
-2.5753379 -0.83314472 3.2526238
-2.1131966 -0.83304352 3.2581425
-1.2939353 -0.83589381 3.257468
0.57141507 -0.83589387 3.257468
1.3907621 -0.83318925 3.258122
-2.7304471 -0.81236827 3.2502062
1.5818305 -0.81873071 3.2538757
0.23224902 -0.80180597 3.2512763
1.5315481 -0.80512005 3.2501812
-1.8755593 -0.79484951 3.2561889
1.153038 -0.79484928 3.2561901
-1.297594 -0.77775341 3.2554448
0.57447696 -0.77792394 3.2554204
-2.6209416 -0.76514256 3.2590008
-0.88364923 -0.76500326 3.2500973
0.29027084 -0.76664013 3.2577577
-1.7501888 -0.96027017 3.2613256
-1.3599827 -0.96064597 3.2645431
0.63751894 -0.96048063 3.2645645
1.0276866 -0.96042848 3.2613513
-1.790864 -0.93619502 3.260854
-1.583569 -0.93351662 3.2616715
0.86113179 -0.93336928 3.261651
1.0683447 -0.93619621 3.2608531
-2.5968292 -0.92426044 3.2688718
0.21567315 -0.92899448 3.2690911
0.2766481 -0.91047287 3.2657738
-2.5924304 -0.90002561 3.2612722
-1.7364378 -0.90269947 3.2647943
-1.2278119 -0.90566862 3.2674739
0.50529146 -0.90566945 3.2674754
1.0140369 -0.90288067 3.2649677
-1.8956827 -0.89051259 3.2671256
-1.4907763 -0.8949151 3.2691541
0.76823491 -0.8947885 3.2693074
1.1729791 -0.89078879 3.2675908
-2.2822735 -0.88472646 3.2663908
0.11460224 -0.8839184 3.2659225
1.5593891 -0.88461518 3.2662406
-2.572998 -0.87302732 3.269794
-2.1528041 -0.87284482 3.2653825
-1.5029402 -0.87396449 3.2614837
-1.263721 -0.87774694 3.2613709
0.54075301 -0.87761492 3.2613513
0.77996254 -0.87382847 3.2616186
-2.4013219 -0.8658787 3.2636988
-1.7103758 -0.86907053 3.2641213
-1.5859804 -0.86057818 3.2634749
0.055403322 -0.86871874 3.2620485
0.10124803 -0.86007816 3.2676013
0.86345994 -0.86057782 3.263474
0.98771363 -0.86902857 3.2642159
-2.7231929 -0.85952783 3.2611387
-1.7135277 -0.85736513 3.2687268
0.99100542 -0.8573643 3.2687278
0.40941107 -0.82912457 3.2669067
-2.3687143 -0.81175828 3.2624774
-1.9380524 -0.81175554 3.2626488
1.2155328 -0.81175542 3.2626486
-2.7442932 -0.80509222 3.2661932
-1.9850844 -0.80493945 3.2625504
0.15490794 -0.80424702 3.2626209
1.262435 -0.80481583 3.2625554
-2.5622244 -0.79600906 3.2625551
0.074617624 -0.79877877 3.2639325
0.10656855 -0.78443074 3.2668831
-2.0137796 -0.76228547 3.2656829
1.2907057 -0.7621417 3.2655349
-1.6137304 -0.96053743 3.2731643
0.89126855 -0.96037102 3.2731848
-1.2355866 -0.93195891 3.2760675
0.51299483 -0.93180859 3.27613
-1.8282869 -0.92930222 3.2713859
0.41487169 -0.92682517 3.272886
1.1057657 -0.92930329 3.2713859
-2.1462693 -0.91224372 3.2705114
-1.5435443 -0.91591763 3.2756455
-0.9462049 -0.9164995 3.2708123
0.82108641 -0.9157697 3.275759
1.4237494 -0.91224396 3.2705107
1.4963286 -0.90404749 3.2742419
-2.2202039 -0.89783877 3.2788811
-1.7883452 -0.89311421 3.2727287
-1.1764734 -0.89734471 3.2763524
-0.03246665 -0.89665449 3.2778735
1.0658244 -0.89311397 3.2727282
-1.9656284 -0.87502706 3.2735667
-1.3769093 -0.87696546 3.2772276
0.65454245 -0.87687451 3.2773054
1.2431076 -0.8750267 3.2735701
1.5319166 -0.87479496 3.2799666
-2.9197087 -0.86918116 3.2751749
-2.8587627 -0.8677451 3.2786725
-1.8402281 -0.86048472 3.2720892
-1.7589324 -0.86045992 3.2739553
-1.0563725 -0.86593282 3.2774675
0.33333158 -0.86607766 3.2773244
1.0364131 -0.86046046 3.2739546
1.1177082 -0.86048591 3.27209
-1.1565609 -0.8576017 3.2787313
0.43400681 -0.85743332 3.2786636
-1.8485729 -0.8364805 3.2791877
-1.3718419 -0.83008659 3.2757514
-1.0386897 -0.83788502 3.2704203
1.1260538 -0.83647901 3.2791872
0.64923644 -0.82993472 3.2756894
-2.2977993 -0.8129909 3.2782996
-2.0011921 -0.81103301 3.2749977
-1.6652172 -0.81037354 3.2709818
0.94269812 -0.81037331 3.2709823
1.2788386 -0.81082225 3.2750938
-2.6083889 -0.80242771 3.2711248
-2.2236557 -0.80968553 3.2707059
-0.12120365 -0.80163652 3.2799113
1.5011349 -0.80968606 3.2707059
-2.3407955 -0.79407924 3.2712147
-2.1132119 -0.79123759 3.2744534
0.36370695 -0.79992902 3.2797682
-2.3698001 -0.78237522 3.2775469
-2.3219886 -0.78499585 3.2778578
-2.100585 -0.78361082 3.2712536
-1.0710363 -0.78231549 3.2739234
-0.15239054 -0.78916305 3.2711585
-1.8687871 -0.96042573 3.2818298
0.51528078 -0.9602778 3.2880654
1.1462667 -0.9604255 3.2818303
-1.3607579 -0.95982957 3.2818246
0.63823855 -0.9598304 3.2818253
-2.8127599 -0.93517613 3.2858162
-2.5898979 -0.93517494 3.2858157
-2.3670335 -0.93517518 3.2858157
-2.3387671 -0.93677688 3.2824559
-2.1441603 -0.93531334 3.2858801
-1.9212976 -0.93531287 3.2858799
-1.6984339 -0.93531263 3.2858796
-1.4755721 -0.93531334 3.2858801
-1.2527092 -0.93531287 3.2858799
-0.13839722 -0.93531239 3.2858796
0.08446455 -0.93531334 3.2858801
0.26462835 -0.9340018 3.2841687
0.30732816 -0.93531311 3.2858801
0.53018999 -0.93531382 3.2858806
0.75305945 -0.9351759 3.2858162
0.97592312 -0.93517566 3.2858162
1.1987867 -0.93517566 3.285816
1.4216492 -0.93517661 3.2858167
1.6162465 -0.93677664 3.2824559
-1.2249291 -0.92844123 3.2866294
0.50231171 -0.92858982 3.2866096
0.34290257 -0.91106761 3.2836034
-1.9065111 -0.90047997 3.2846022
-1.6463189 -0.90474731 3.2808683
0.92358798 -0.90497476 3.2809734
1.183991 -0.90048105 3.2846
-2.2009857 -0.88907731 3.2817688
-1.8858507 -0.88043559 3.2828097
-1.5033598 -0.88527143 3.2897639
-0.97486448 -0.88194215 3.2853827
0.25200319 -0.88238132 3.2847881
0.28554243 -0.88243854 3.28756
1.1632375 -0.88054705 3.2826591
1.4790506 -0.8894943 3.2826948
0.083772808 -0.87866539 3.2809286
-2.3526018 -0.86013341 3.2894337
-2.0957861 -0.86039221 3.2807488
-2.0622482 -0.86185288 3.2859101
1.3391708 -0.86200261 3.2857609
1.3732657 -0.86039186 3.2807498
0.038453087 -0.85285139 3.2865853
-1.6523041 -0.83224463 3.2802367
-1.5091581 -0.83368188 3.2807875
0.78671902 -0.83382589 3.2807672
0.92971551 -0.83239222 3.280298
-2.7013021 -0.82859039 3.2856276
-1.4194913 -0.82893813 3.2844212
0.18631363 -0.82615697 3.2821426
0.69687372 -0.82879192 3.2844019
-1.6276616 -0.81029487 3.2877219
-1.2562052 -0.81639624 3.2806177
-0.31911004 -0.81122887 3.2887521
0.53374684 -0.81654227 3.2807298
0.9052279 -0.81018782 3.287771
-1.8575871 -0.79388857 3.2882226
-0.2006546 -0.79240406 3.2887781
1.1351042 -0.79401577 3.2883787
-2.2024639 -0.789451 3.283052
0.29706949 -0.78389764 3.2872643
-2.3828635 -0.96020466 3.2992949
-2.1251616 -0.96031415 3.2905414
-2.2935348 -0.95709777 3.2935452
-0.10443854 -0.9264096 3.2917492
-2.3231177 -0.91855586 3.2988067
-2.1533778 -0.91536868 3.2977552
1.4309239 -0.91522062 3.2978694
1.600596 -0.91855621 3.2988052
-2.5789025 -0.90965104 3.2924542
-2.0720527 -0.90392399 3.294548
-1.8383393 -0.90497136 3.2984505
-1.8169643 -0.90168774 3.2986827
1.0944436 -0.90168774 3.2986834
1.1156925 -0.90509474 3.2984571
-2.6280084 -0.89607286 3.2917516
-2.0113769 -0.89098632 3.2972636
-1.9610233 -0.89421737 3.2947168
1.2384757 -0.89415002 3.2946033
1.2889872 -0.89107114 3.2972436
-2.5300293 -0.88728291 3.2971649
-2.3491695 -0.8863464 3.2925932
-2.0519719 -0.88123369 3.2996233
-2.0369613 -0.88557279 3.2941754
-1.7487569 -0.88445228 3.2983775
-1.5297529 -0.88389945 3.2910256
0.21642861 -0.88359451 3.2931864
0.78048027 -0.88473439 3.2904925
0.80749595 -0.88407165 3.2908792
1.0264993 -0.88463801 3.2993712
1.3145678 -0.88565773 3.2941034
1.3286061 -0.88097692 3.2995892
1.6265838 -0.88624054 3.2927372
-2.6108086 -0.860039 3.2981827
-1.344884 -0.86002004 3.294533
0.62236524 -0.86001956 3.294534
-2.7461534 -0.80008698 3.2917392
-1.5034683 -0.80307245 3.2943721
0.029120028 -0.80933338 3.2919126
0.78107005 -0.80289423 3.2945442
-1.9323686 -0.79173064 3.2917209
1.2098475 -0.79173124 3.2917206
-2.1743183 -0.78545368 3.2962387
-2.0820448 -0.78107619 3.2937226
-1.3505515 -0.78577107 3.2981958
0.6280334 -0.78577185 3.2981977
1.3586824 -0.78132427 3.2936902
-2.64449 -0.77299142 3.2921329
-2.0371885 -0.77494848 3.2955523
-1.4485011 -0.77684522 3.298867
0.72628814 -0.77702498 3.2990241
1.3148272 -0.77503932 3.2956319
0.6275869 -0.76012307 3.2949891
-1.3489487 -0.75982028 3.2942677
-2.6418407 -0.96025676 3.3080745
-1.8861722 -0.95983565 3.3089709
-1.7316298 -0.95710099 3.3035386
1.0091082 -0.95710158 3.3035393
1.1636876 -0.95967716 3.3089461
-2.87678 -0.93734813 3.3036685
-2.5187874 -0.93341577 3.3082027
-0.32065284 -0.9346233 3.3062625
-0.26900375 -0.93101674 3.3046737
-1.5145763 -0.92803097 3.3043296
0.79195774 -0.92817867 3.3043108
-2.385941 -0.91175818 3.30124
-2.5053115 -0.90308571 3.3084722
-2.2724676 -0.90370119 3.3076243
-1.3973749 -0.90720284 3.3048885
0.67474532 -0.90708208 3.3049333
-2.3762829 -0.89382827 3.3049281
-1.0694292 -0.89379907 3.3027935
0.34690723 -0.89379907 3.302794
-2.887089 -0.88696659 3.3027387
-2.6766157 -0.88692236 3.302613
-2.4661386 -0.88687742 3.3024855
-2.255662 -0.88683331 3.3023603
-2.0692024 -0.88305557 3.3084359
-2.0451808 -0.88678837 3.3022327
-1.8346989 -0.8867439 3.3021054
-1.6242143 -0.88669896 3.3019783
-1.4137222 -0.88669896 3.3019783
-0.15076753 -0.88669896 3.3019779
-0.11863101 -0.88866627 3.3065624
0.059724659 -0.88669884 3.3019774
0.27021405 -0.88674366 3.3021049
0.48070177 -0.88678813 3.3022318
0.69118512 -0.88683319 3.3023598
0.90166867 -0.88687742 3.3024855
1.1121478 -0.88692236 3.302613
1.3226271 -0.88696659 3.3027387
-1.3654883 -0.873115 3.3079348
0.64266717 -0.87319666 3.3080442
-1.2480425 -0.86040342 3.3006251
0.047753036 -0.8699531 3.3078265
0.5255211 -0.86040401 3.3006256
1.6728768 -0.8655386 3.3092077
-2.8703566 -0.85994339 3.306977
-1.2184826 -0.8578046 3.3082092
-0.99100131 -0.85277331 3.3002014
0.49594069 -0.85796958 3.3082759
-1.1317548 -0.84906435 3.3023074
-2.9087689 -0.83329332 3.3037188
-2.3931592 -0.83705598 3.3005142
-0.16729125 -0.8355186 3.3048589
-0.020647407 -0.83146626 3.3087306
0.19408882 -0.83445245 3.3029845
-2.3914828 -0.82909286 3.3051295
-2.2024975 -0.82819623 3.3041306
-1.7099679 -0.82860076 3.3020995
-1.4412408 -0.8256039 3.3013229
0.71866667 -0.82547486 3.3013849
0.98734736 -0.82845289 3.3020797
-2.5794959 -0.8189919 3.3034596
-1.8597448 -0.81585646 3.3025985
-1.7279592 -0.8117559 3.3065138
-0.29033589 -0.81611776 3.3072717
1.0054405 -0.81175601 3.3065131
1.1372904 -0.81600285 3.3027105
-1.6441724 -0.80574149 3.3066237
-1.2479713 -0.80954504 3.3006563
0.52553922 -0.80943871 3.3007045
0.92152739 -0.80562001 3.3066297
-2.4614916 -0.7974999 3.3099506
-2.3482132 -0.79369438 3.3059707
-1.7441798 -0.79399663 3.3018851
-0.95822847 -0.79493129 3.3071764
0.2357088 -0.79493129 3.3071766
1.0216013 -0.7941283 3.3016601
1.6258138 -0.7938199 3.3060746
-2.4294989 -0.78561378 3.3094757
0.21405381 -0.78220356 3.3082304
0.15536222 -0.77886271 3.3022366
1.6888438 -0.76590693 3.3090959
0.0002014637 -0.960127 3.3149199
-1.1728628 -0.95710272 3.3134766
0.45030916 -0.95727021 3.3134093
-2.7514629 -0.93291283 3.3146982
-2.9731746 -0.92831254 3.313308
-0.092751265 -0.92572856 3.3107054
-2.4357839 -0.91288805 3.3112252
-1.2129647 -0.91025829 3.3102136
0.49041581 -0.9103657 3.3103073
-2.3030515 -0.88226384 3.3106282
-2.1721466 -0.88147753 3.3165197
-2.357662 -0.87700361 3.3177757
1.448302 -0.87337744 3.3117986
1.6344979 -0.87654531 3.3185158
-1.763248 -0.85787159 3.3179271
1.0407089 -0.85803705 3.3179941
-2.5663519 -0.83286607 3.3126047
-2.0035052 -0.82826024 3.3199642
1.2808821 -0.82811099 3.3199441
-2.5837233 -0.81366807 3.31861
-1.8787402 -0.81037414 3.3155622
1.1562533 -0.81047928 3.3154709
-2.2033911 -0.80154014 3.3175571
0.13944858 -0.80878365 3.3138037
1.4808698 -0.80154133 3.3175576
-2.8794839 -0.78695166 3.3135819
-2.6696444 -0.78699511 3.3134549
-2.4593406 -0.78715652 3.3151388
-2.2499576 -0.78708154 3.3132024
-2.1598458 -0.78128231 3.3174593
-2.040112 -0.78712469 3.313077
-1.9656751 -0.78577191 3.3142457
-1.8302544 -0.78712469 3.313077
-1.6204048 -0.78716773 3.3129513
-1.4583524 -0.78414071 3.3113923
-1.4105532 -0.78721112 3.3128245
-0.15140048 -0.78721112 3.3128245
0.058455259 -0.78716791 3.3129504
0.26831028 -0.78712487 3.3130765
0.4781625 -0.78708148 3.3132029
0.68801141 -0.78703815 3.3133295
0.73609638 -0.78397101 3.3112447
0.89786458 -0.78703767 3.3133309
1.1077118 -0.78699464 3.3134563
1.2432817 -0.78568828 3.3141718
1.3175554 -0.78695101 3.3135839
-2.4116633 -0.76632154 3.3100321
-2.5701902 -0.9604131 3.3207474
-0.10534501 -0.95727301 3.323292
0.1725744 -0.93537521 3.3279638
-1.807176 -0.92776644 3.322197
1.084656 -0.92776573 3.3221993
-2.8329301 -0.91246819 3.327539
-1.7523391 -0.91804224 3.3203645
0.13087247 -0.91096067 3.327776
1.0298643 -0.9181878 3.3202527
0.17102271 -0.90968537 3.326149
-2.1041603 -0.89051282 3.3253908
-1.7413557 -0.89478779 3.3216312
-1.6206793 -0.89894664 3.3238573
-1.1431307 -0.89568377 3.3270733
0.42061007 -0.89568365 3.3270741
0.89839023 -0.89866447 3.3235891
1.0188538 -0.89491391 3.3214774
0.011998415 -0.86019206 3.3274577
-2.3050153 -0.85793716 3.3275905
-1.868706 -0.85980368 3.3216324
1.1462207 -0.85996103 3.3216085
1.582479 -0.85810304 3.3276577
-2.3091497 -0.83256721 3.3293753
-1.9798329 -0.82517624 3.320662
-1.6980991 -0.82792395 3.3227799
0.97566158 -0.82766938 3.3229003
1.2571958 -0.82491505 3.3207865
-2.4711373 -0.81530952 3.3248646
-2.0143456 -0.81848717 3.3248973
1.2918262 -0.81848562 3.3248963
-1.9688839 -0.80184424 3.3285952
-0.25302458 -0.80800849 3.3271728
-0.21047974 -0.80105937 3.3236463
1.2463634 -0.80184376 3.328593
-1.7226542 -0.79246867 3.3248491
-0.92173922 -0.79584056 3.3244879
1.0000359 -0.79253447 3.3247771
-2.8106511 -0.78837031 3.3294065
0.10625738 -0.78712034 3.3276975
-1.3100652 -0.77401382 3.3203042
0.58724636 -0.7739355 3.3204119
-2.4143941 -0.95968169 3.3362341
-2.5573244 -0.93247092 3.3317101
-2.4950151 -0.93254977 3.33149
-1.5898494 -0.9323644 3.3367829
0.86726052 -0.93221736 3.3368435
-2.4754953 -0.92778897 3.331918
-1.4496135 -0.92973733 3.3342772
-1.1609612 -0.92543411 3.3300624
0.43844193 -0.9254353 3.3300638
0.72709346 -0.92973721 3.3342769
-2.7944038 -0.90965152 3.3374491
-2.0654399 -0.90863192 3.3389323
-1.0677278 -0.90316582 3.3348849
0.28492045 -0.90195096 3.3371699
0.34508097 -0.90329361 3.3348379
1.3429207 -0.90863287 3.338932
-1.4872038 -0.8995809 3.3320603
-0.21258745 -0.89266574 3.3389678
0.76468289 -0.89958006 3.3320611
-2.7974238 -0.88444954 3.3358004
-1.2838902 -0.88557279 3.3303704
0.25761443 -0.88691294 3.3305137
0.56137061 -0.88557243 3.3303714
-2.5765128 -0.86072528 3.3331394
-2.1454775 -0.86596346 3.3349977
-1.0287932 -0.86838555 3.3329434
0.30635497 -0.86855221 3.3325751
1.4227241 -0.86630273 3.3342471
-1.4105961 -0.85978222 3.3388741
0.68940985 -0.8594197 3.3397067
-2.9569695 -0.84011173 3.3357372
0.27688384 -0.83020967 3.337888
-2.300046 -0.82776505 3.3379974
-1.0607127 -0.81018066 3.3336859
-0.1916618 -0.81101751 3.3331585
-0.13627422 -0.81030846 3.335006
0.33830029 -0.81006432 3.3336899
-2.0411868 -0.80404806 3.3368475
-1.251528 -0.80743074 3.3331039
0.52900815 -0.80742961 3.3331022
1.3187249 -0.80396008 3.3369322
-2.3212898 -0.79123777 3.3326061
-1.5101053 -0.79026377 3.3365548
-1.2456406 -0.79209411 3.3361294
-0.26705995 -0.79925871 3.3382623
0.52324414 -0.79201555 3.3361592
0.78771925 -0.79017967 3.336534
-2.8448575 -0.78151429 3.3305202
-1.5031875 -0.78203529 3.3351743
0.26234058 -0.78674483 3.3312678
0.78098321 -0.78221536 3.335217
0.085520923 -0.77056992 3.333267
-2.0625665 -0.96042085 3.3475032
-0.20497453 -0.9601329 3.3419399
1.3400631 -0.96057761 3.3475268
-1.2074677 -0.95760888 3.3427579
0.48492503 -0.95744318 3.3428249
-2.2360997 -0.93232214 3.3484292
-1.4588544 -0.9359715 3.349246
0.73633397 -0.93597078 3.3492455
1.5134279 -0.93204182 3.3484688
-2.102977 -0.92734814 3.3402746
-1.6982698 -0.92513621 3.3496432
0.97569364 -0.92526782 3.3497062
-2.4717362 -0.91177189 3.3404942
-2.1756489 -0.91186547 3.3452423
-1.1743163 -0.91752172 3.3421962
0.45184517 -0.91766715 3.3420844
-2.7976823 -0.90468407 3.349592
-1.4981579 -0.90585136 3.3422835
0.77563739 -0.90585113 3.3422828
-1.5894634 -0.88957053 3.3422441
-1.4222636 -0.88215339 3.3412681
-1.3337402 -0.88095462 3.3438451
-0.40101212 -0.8885324 3.348958
0.61095911 -0.88087821 3.3437431
0.70005566 -0.88197184 3.3413095
0.8672083 -0.88973993 3.342205
-2.8155129 -0.87498915 3.3408067
-2.3953197 -0.85974598 3.3488493
-2.7998555 -0.83568817 3.3459191
-2.5781653 -0.83568728 3.3459198
-2.3564637 -0.83555287 3.3459821
-2.1347752 -0.83555281 3.3459821
-2.0493987 -0.83226639 3.346313
-2.0008423 -0.83264577 3.3403692
-1.913085 -0.83555186 3.3459826
-1.6913965 -0.83555198 3.3459826
-1.4696991 -0.8354162 3.346046
-1.2480166 -0.83555239 3.3459823
-0.36126009 -0.83555102 3.345983
-0.13957199 -0.83541626 3.346046
0.082119614 -0.8355515 3.345983
0.23575604 -0.83552665 3.3462038
0.30380815 -0.8355515 3.345983
0.52549773 -0.83555281 3.3459821
0.7471928 -0.83568823 3.3459191
0.96888298 -0.83568728 3.3459198
1.1905742 -0.83568788 3.3459196
1.2783214 -0.83264631 3.3403685
1.3268007 -0.8324067 3.3463311
-2.5246623 -0.82474357 3.3402252
-1.1880946 -0.82752109 3.3416982
0.46566254 -0.82726771 3.3418179
-1.4420724 -0.81797361 3.3466024
0.71955305 -0.81797278 3.346602
1.4301491 -0.81549299 3.3415689
-1.3086865 -0.80641168 3.3499885
-0.93377835 -0.8009752 3.3469014
-0.070289969 -0.8073296 3.3407183
0.58616549 -0.80641097 3.3499887
-1.6048703 -0.79388952 3.3409882
0.0042610466 -0.79240394 3.3460474
0.88238454 -0.79401505 3.3411431
-2.8279753 -0.78340828 3.3446105
-0.33349913 -0.78980124 3.3493235
0.031840876 -0.78321719 3.340843
-2.3165905 -0.77724797 3.3418486
-2.0292959 -0.77337003 3.3497396
1.5934267 -0.77769625 3.3425882
-1.8594472 -0.75741863 3.3468337
1.1376663 -0.75782371 3.3480787
-1.7539558 -0.95777518 3.3524103
1.0314167 -0.95760864 3.3524776
-1.9428226 -0.93312246 3.3538795
1.2203875 -0.93297464 3.3538592
-2.4018245 -0.92707634 3.3585253
-1.9723055 -0.92738581 3.3507948
1.2498662 -0.9276402 3.3509133
-2.7208447 -0.91340911 3.35132
-2.1046801 -0.91106629 3.3536596
-1.4266776 -0.9103657 3.3549342
0.70415759 -0.91036594 3.3549345
1.3822424 -0.91117275 3.3537078
-1.758203 -0.89325565 3.3553038
0.093853086 -0.89392519 3.3554683
1.0355577 -0.89312172 3.3551195
-1.5489813 -0.88440567 3.3545058
0.82686782 -0.88468432 3.355994
-2.0703645 -0.86067069 3.3598249
-0.2182945 -0.8601355 3.3544068
1.3861003 -0.86051327 3.3576546
-0.07379137 -0.85297704 3.357641
-0.95323128 -0.8477208 3.3550606
-2.4765332 -0.83279276 3.3507223
-2.6209042 -0.82700491 3.3555961
-2.5997429 -0.82726836 3.3562212
-2.3698316 -0.82700348 3.3555951
-2.1187615 -0.82700443 3.3555956
-1.8676796 -0.82685089 3.3554811
-1.6166103 -0.8268497 3.3554802
-1.3655403 -0.82685065 3.3554809
-1.1144695 -0.82685041 3.3554807
0.14088064 -0.82685018 3.3554804
0.39195061 -0.82685113 3.3554811
0.64301878 -0.82685113 3.3554811
0.89408976 -0.82685065 3.3554809
1.1451607 -0.82685041 3.3554807
1.396229 -0.82685065 3.3554809
1.6472998 -0.82685041 3.3554807
-1.5178835 -0.81164968 3.3504717
0.79534727 -0.81175566 3.350379
0.33552709 -0.806418 3.354598
-2.1091845 -0.79473817 3.3537068
-1.8601816 -0.79858762 3.3545351
-1.5423214 -0.79399651 3.3583004
-1.2085277 -0.79493177 3.3594365
-0.34018117 -0.79940164 3.3532593
0.48598295 -0.79505646 3.3595896
0.81971073 -0.7941941 3.3579636
1.1377404 -0.7986809 3.3544457
1.3864323 -0.79489195 3.3536468
-1.9757565 -0.78547549 3.3521609
-1.3783134 -0.78168261 3.3553677
0.65553468 -0.78175622 3.3552668
1.2533 -0.78543186 3.3524065
-2.3714893 -0.76532799 3.3553967
1.6484997 -0.76565647 3.3564034
-2.2974293 -0.95794076 3.362009
0.3155086 -0.9599824 3.3690765
1.5748937 -0.95777565 3.3620768
-1.974529 -0.93195087 3.365557
1.2518541 -0.93167031 3.3655953
-2.4763482 -0.92857659 3.364727
-2.2418633 -0.92470133 3.3693895
-1.463482 -0.92697942 3.3698835
-1.7315296 -0.91024089 3.366991
-1.2018082 -0.91025245 3.3676956
0.47939605 -0.91037095 3.3676996
1.0091789 -0.91045523 3.3670893
-0.37947464 -0.90484655 3.3697934
-1.3118653 -0.8915742 3.3666322
0.31166837 -0.89965761 3.3675246
0.58946973 -0.89165491 3.3666611
-2.8146551 -0.88110656 3.3683856
0.07343334 -0.8870427 3.3637133
1.4553932 -0.88049281 3.3654308
0.85335362 -0.86761558 3.3699276
-0.20688158 -0.85915971 3.3698819
-1.7871398 -0.83182132 3.3633986
-1.5185442 -0.83611822 3.3672071
-1.0603523 -0.8315798 3.3694823
0.33776063 -0.8317281 3.3695462
0.795959 -0.83625805 3.367187
1.0644609 -0.83210319 3.3634381
-2.0083513 -0.82953167 3.3681936
-0.05002749 -0.82673013 3.3610103
1.2857404 -0.8293761 3.3681293
-2.8229327 -0.81258559 3.3672342
-2.0922647 -0.81037402 3.3601444
-0.86249125 -0.8175993 3.368696
0.14002115 -0.81745458 3.368583
-1.9212475 -0.80894637 3.3666654
-1.7910501 -0.80063641 3.3648314
-1.4710445 -0.80571508 3.3686099
-1.2177515 -0.80354184 3.3642058
0.050480008 -0.80180615 3.3669603
0.49510646 -0.80341834 3.3641608
0.74842083 -0.80560315 3.3686619
1.0685285 -0.80063736 3.3648314
1.1987274 -0.80894566 3.3666639
0.085034609 -0.79685116 3.3610311
-2.1098495 -0.7665475 3.3693776
-2.7830777 -0.96197045 3.3795872
-1.5523149 -0.96042657 3.3743963
0.8297962 -0.96042681 3.3743956
-2.0123005 -0.93655789 3.3701372
-1.340048 -0.93375993 3.3756244
0.61760759 -0.93361473 3.3756039
1.289718 -0.93641734 3.3701167
0.74104798 -0.92723501 3.3700027
-2.7126017 -0.91001725 3.3719099
-0.081138015 -0.91096139 3.3720422
1.2676618 -0.91534168 3.3776603
-1.5563041 -0.90269899 3.379437
0.83390588 -0.90288067 3.3796098
-1.9919548 -0.89478827 3.3739529
-1.6047896 -0.89482033 3.3771162
0.88226902 -0.89482021 3.3771167
1.2694513 -0.89491391 3.3737996
-1.6383556 -0.8746857 3.3770845
0.91538125 -0.87437522 3.3775871
-2.5638909 -0.86182278 3.3784995
-2.3705034 -0.86512339 3.3798366
-2.1573601 -0.86612606 3.3763037
-1.5761476 -0.86745179 3.3701906
-2.9246736 -0.8595292 3.3762341
-2.622333 -0.85688889 3.3710861
-1.8730441 -0.8575722 3.3724744
1.1512649 -0.85715246 3.3737249
-2.7183979 -0.84627253 3.371614
-1.8661178 -0.83343697 3.3725891
1.1436821 -0.83358312 3.3725696
-2.9027514 -0.82691348 3.3746641
-1.3650992 -0.81090033 3.3748164
0.020131379 -0.81101692 3.3773794
0.64268488 -0.8107844 3.3748202
-2.5680161 -0.80509245 3.378382
-2.8059413 -0.79570442 3.3751836
-1.9463947 -0.78118765 3.3764009
-1.4409698 -0.78505981 3.3799281
-1.0360762 -0.78265488 3.377804
0.31321388 -0.78222287 3.377208
1.2237833 -0.78107786 3.3762484
-1.0123209 -0.76886117 3.3784423
0.28992289 -0.76861739 3.3778899
-2.5466313 -0.96186846 3.3881946
-1.7104192 -0.93171877 3.3828354
0.98765898 -0.93129253 3.3828964
-2.7917888 -0.92426139 3.3893638
0.22649825 -0.92682469 3.389307
-1.9653454 -0.91186547 3.3891516
0.0040780306 -0.91631186 3.386817
1.242826 -0.91186428 3.3891501
-1.3523047 -0.90951097 3.3805931
-1.1636406 -0.90659428 3.3853948
0.44099933 -0.90671593 3.3853993
0.62987208 -0.90961885 3.3806419
-2.3126373 -0.89051306 3.3836563
-2.1750891 -0.89461291 3.3834352
-1.0601435 -0.89866364 3.3803983
0.33752286 -0.89854175 3.3804972
1.4523361 -0.89445686 3.3833776
-2.8415997 -0.88868499 3.3865027
-2.1976781 -0.8850953 3.3825047
-1.1561863 -0.88811439 3.3884377
0.29898879 -0.88396752 3.3800397
0.43394276 -0.88828778 3.388397
-2.3269749 -0.86173791 3.3871017
-1.5616165 -0.86046106 3.3866718
0.30062544 -0.86007804 3.381496
0.83909678 -0.86046183 3.3866711
1.6475921 -0.86484003 3.3806813
-2.9265387 -0.85021687 3.3817444
-2.7744436 -0.85127318 3.3842945
-2.0597062 -0.85712743 3.3808599
1.3366646 -0.85811061 3.3827806
1.344321 -0.84113288 3.3845985
-2.9373913 -0.83607316 3.3878052
-2.0686121 -0.83669955 3.3878284
-1.5221777 -0.83151406 3.380676
0.79949522 -0.83179665 3.3807142
-0.15081894 -0.82657337 3.3802381
-1.8911035 -0.80488622 3.3829188
1.1684781 -0.80477428 3.382972
-2.9061625 -0.79863632 3.3830538
-2.6940858 -0.79863667 3.3830531
-2.482012 -0.79863691 3.3830528
-2.2699361 -0.79863751 3.3830516
-2.0578613 -0.7986362 3.3830538
-1.8457856 -0.79863679 3.3830528
-1.6337116 -0.79863703 3.3830523
-1.421636 -0.79863656 3.3830533
-1.2095611 -0.79863644 3.3830533
-0.36126044 -0.79871595 3.3829417
-0.14918378 -0.79871643 3.3829412
0.062890738 -0.79863679 3.3830528
0.27496639 -0.79863644 3.3830533
0.36250234 -0.79087466 3.3800926
0.48704043 -0.79863644 3.3830533
0.69911623 -0.79863715 3.3830523
0.91119182 -0.79863679 3.3830528
1.1232667 -0.79863656 3.3830533
-2.2862575 -0.7867415 3.3816738
-2.0010357 -0.78030235 3.3845077
-1.5282166 -0.78549874 3.3855622
-1.0764903 -0.7887581 3.3825936
0.29042083 -0.78438383 3.3806665
0.35424757 -0.78858757 3.3825531
0.71808839 -0.78558826 3.3806572
0.8053447 -0.78528953 3.3857913
1.2786776 -0.78039289 3.3845305
1.56367 -0.78684568 3.3818164
-2.1564806 -0.76632106 3.3813491
1.433728 -0.76598918 3.3805976
-2.3090081 -0.96176445 3.3968444
1.5865252 -0.9619242 3.3968229
-1.5612489 -0.95983076 3.3963556
0.83872843 -0.95983076 3.3963554
-2.5557089 -0.93713152 3.3906512
-1.9405987 -0.93262041 3.3969691
-1.0748396 -0.93001574 3.3965964
0.026147485 -0.93438566 3.3969584
0.35223639 -0.93016821 3.3965333
1.2180771 -0.93261921 3.3969681
-1.6404177 -0.91036499 3.39956
0.91792977 -0.91025758 3.3994675
0.24433738 -0.90887666 3.3944702
-2.4101877 -0.89774382 3.399652
-0.41624033 -0.89366353 3.3935521
-0.0072803199 -0.89266479 3.3963442
-2.0247111 -0.88903105 3.3905702
-1.9198407 -0.88048691 3.3907781
1.1974821 -0.88039464 3.390801
1.3028506 -0.88949502 3.3915949
-2.5081801 -0.86902821 3.3952951
-2.088881 -0.86165005 3.3957458
1.3663601 -0.86165178 3.3957443
-1.5002203 -0.85736477 3.3905787
0.77769971 -0.85736358 3.3905785
-2.3460898 -0.83289766 3.3998618
-1.2672886 -0.83406758 3.3940406
-1.2546328 -0.83106232 3.3981068
-0.091677427 -0.83063364 3.3995314
0.53186405 -0.83148754 3.3981678
0.54476881 -0.83406854 3.3940408
-2.5172057 -0.82858956 3.399406
0.37664187 -0.82602596 3.3998671
-2.5700314 -0.81041384 3.3991773
-1.3077736 -0.81175566 3.3942442
0.58523643 -0.81186056 3.3941526
-2.3186245 -0.80415708 3.3974271
0.25621486 -0.80718994 3.392647
-2.5293176 -0.79116952 3.3908751
-1.3521531 -0.79388881 3.3937521
-1.271631 -0.79965228 3.3981733
0.54926014 -0.79983687 3.3979969
0.62966597 -0.79401362 3.3939066
-2.0266833 -0.78949606 3.3915479
-1.8953315 -0.78414106 3.3991082
1.1725147 -0.78397089 3.3991733
1.304623 -0.78918082 3.3922615
-1.6128557 -0.7682277 3.3960981
0.890064 -0.76806808 3.3958333
-2.8788502 -0.96056116 3.4063277
-2.0702004 -0.96166134 3.4055376
0.31687582 -0.96027732 3.4014041
1.3476799 -0.9616611 3.4055381
-1.4435717 -0.93134105 3.4003088
0.7208876 -0.93105555 3.4003491
-1.5053949 -0.91092676 3.408603
-1.3270805 -0.91606665 3.4092741
0.60468531 -0.9157697 3.409502
0.7829783 -0.91104227 3.4086058
-2.174454 -0.90086365 3.4032726
-0.14775944 -0.90801346 3.4084809
0.35791394 -0.90634853 3.4036117
-2.8418591 -0.89544702 3.4086561
-1.5565819 -0.89428449 3.4078696
-0.15916911 -0.89392567 3.4082959
0.83397108 -0.89408374 3.4075336
-1.8896909 -0.8659631 3.4064848
-1.8495588 -0.86172408 3.4044542
-1.2797918 -0.86830163 3.4032888
0.55738914 -0.86855197 3.4027336
0.82226503 -0.86002004 3.4087267
1.1270787 -0.86156499 3.4044328
1.1670029 -0.86621761 3.4059198
-1.5447532 -0.85986251 3.4087515
0.22129524 -0.85743392 3.4001753
-2.6087568 -0.83727038 3.4080777
-0.21300507 -0.82381558 3.4057567
-2.6890855 -0.81419587 3.400609
-2.3057885 -0.81037354 3.4047263
-1.3235667 -0.80307269 3.4088678
0.60116982 -0.80289364 3.40904
0.20921795 -0.79247057 3.4032035
-1.7771592 -0.78551924 3.4079607
1.0548335 -0.78538799 3.4086981
-1.5980477 -0.7752282 3.401581
-1.1736257 -0.77050799 3.4076819
-0.14226104 -0.77999061 3.4058845
0.45093668 -0.77046275 3.4076889
0.87507391 -0.77553189 3.4020841
-2.446224 -0.76958871 3.4076593
-1.8301978 -0.96155596 3.4142745
1.1076773 -0.9615556 3.4142737
-2.078953 -0.95709944 3.4161243
1.3564345 -0.95709956 3.4161236
-1.1740253 -0.9309606 3.4179573
0.45133764 -0.93067408 3.4179983
-0.29314944 -0.91096163 3.4163084
-0.26272643 -0.90063155 3.4105387
0.39663613 -0.89037263 3.4150791
-1.3493069 -0.88442886 3.4110072
0.62720639 -0.88470763 3.412492
-1.2159908 -0.87028062 3.4145491
0.49330109 -0.87032747 3.4145553
-2.8842525 -0.86093545 3.4184179
-1.6090801 -0.86163598 3.4131851
0.32769406 -0.86040366 3.4136345
0.88660109 -0.86147732 3.4131632
-0.88223088 -0.85773605 3.4192762
0.15971041 -0.85773712 3.4192762
-0.98430169 -0.83074808 3.415735
-0.042799711 -0.83468825 3.4150891
0.26152712 -0.83117485 3.415796
-2.7180963 -0.82468635 3.4144258
-2.0173409 -0.82832259 3.4184797
-1.6327138 -0.82560337 3.4196601
0.91013777 -0.82547486 3.4197206
-2.614511 -0.81258559 3.4107506
-1.6648028 -0.81160748 3.4153142
-1.0413086 -0.81624973 3.41328
0.31890899 -0.81654155 3.4135063
0.94238615 -0.81149209 3.4153185
-2.7535808 -0.80330026 3.412241
-2.7367494 -0.80354363 3.4119604
-1.4588275 -0.79493153 3.4116964
-1.3711638 -0.79971695 3.4129725
-1.3404955 -0.79392999 3.4148278
-1.2612077 -0.79585981 3.4109628
0.53868771 -0.79585958 3.4109623
0.61784899 -0.79419339 3.4143808
0.64864361 -0.79971588 3.4129705
0.73630607 -0.79493201 3.4116964
0.18117779 -0.78743911 3.4160571
0.024965942 -0.7584697 3.4146793
-1.5889928 -0.96145201 3.423054
-0.19872177 -0.96012735 3.4285553
0.86647242 -0.96145177 3.423053
-2.0871902 -0.95983458 3.4238019
-1.5176513 -0.95710075 3.4257743
0.7951293 -0.95710158 3.4257751
0.27132863 -0.93139815 3.4272082
-2.7889173 -0.92818737 3.4271061
-2.0905793 -0.928864 3.4278474
0.097715914 -0.92585981 3.4285147
-2.5327792 -0.91870028 3.4282479
-2.0941699 -0.90370119 3.4210992
-0.17611933 -0.90724534 3.4227791
0.1118879 -0.90744609 3.427815
1.3717079 -0.90379083 3.4211836
-2.2425556 -0.89478803 3.4262762
-2.075511 -0.89381325 3.4282322
1.5200503 -0.89491367 3.4261224
-2.5596383 -0.88634545 3.4265449
-1.7163163 -0.88516319 3.4254897
-1.664742 -0.88043535 3.4235315
-1.4962947 -0.88493913 3.4222906
0.033659458 -0.88238013 3.4237514
0.12924454 -0.88330114 3.4252963
0.77342153 -0.88515311 3.4225197
0.94203818 -0.88065815 3.4232285
0.99358463 -0.88484156 3.4259284
-2.5962172 -0.87889171 3.4226928
-0.32556483 -0.87713945 3.4264853
-1.3673956 -0.86154938 3.4219599
0.64491856 -0.86138964 3.4219379
-1.4294318 -0.85780412 3.428714
0.70691121 -0.857804 3.4287136
1.4642818 -0.85649323 3.4239945
-1.4151851 -0.83198702 3.4297657
0.6925953 -0.83213603 3.4298298
-2.6039245 -0.81236827 3.4213977
0.23192587 -0.81101739 3.4215994
1.4070306 -0.8134988 3.4268863
-2.8444576 -0.79573613 3.4254484
-2.7445807 -0.7945528 3.425117
-2.2043605 -0.79407877 3.4296529
-0.091029286 -0.7869522 3.4298236
-2.373332 -0.96056831 3.4332347
-1.346575 -0.96134531 3.4318795
0.62405491 -0.96134591 3.4318767
-0.95947969 -0.95710272 3.4353719
0.23692822 -0.95727056 3.4353032
0.17904605 -0.93028754 3.4358277
0.40117848 -0.93560314 3.4384372
-1.9355671 -0.91536939 3.432369
-1.7550416 -0.91186523 3.4330604
1.0325215 -0.91186547 3.4330606
1.2131141 -0.91521966 3.4324841
-2.4607866 -0.90124643 3.4310358
-1.7590399 -0.90792274 3.4363022
-1.4127921 -0.90236938 3.4380062
0.2293269 -0.90646404 3.4373219
0.69014287 -0.90249765 3.437957
1.036413 -0.90780258 3.436347
-2.8229923 -0.89379466 3.4307117
-2.3609478 -0.88152701 3.4333701
-1.8285407 -0.88398546 3.431962
-0.011006117 -0.88688302 3.4358277
1.1058741 -0.88407099 3.4319949
-2.3108521 -0.87286991 3.4309564
0.16995175 -0.87212497 3.4388196
-2.412508 -0.86527097 3.4342942
-1.1244974 -0.8614617 3.4307787
0.15790188 -0.86121231 3.4396203
0.40202206 -0.86130047 3.430759
-2.0691302 -0.85980421 3.4361248
-1.9736152 -0.85787076 3.4380991
1.2510768 -0.85803634 3.4381669
-0.10309708 -0.83529687 3.4357436
-0.011557013 -0.83085948 3.4336023
-2.1724086 -0.825176 3.4396803
-1.6290056 -0.82981062 3.4305544
-1.5119514 -0.82792395 3.4378254
0.78951591 -0.82766992 3.4379439
0.90639824 -0.8296572 3.43049
-2.2411737 -0.81175792 3.4350476
-1.6435199 -0.81585646 3.4362326
0.3751424 -0.81186032 3.4380181
0.92106283 -0.81600332 3.436347
-2.3272991 -0.80097246 3.4333274
-0.93372256 -0.80677474 3.4319561
-0.068455607 -0.80795562 3.4346218
0.21120195 -0.80677527 3.4319577
-2.6511374 -0.79749954 3.4306486
-0.89767206 -0.79002345 3.4369729
0.033920109 -0.79047865 3.4321101
-2.3481717 -0.78128231 3.4338515
-0.42738613 -0.78902787 3.4373171
-0.29534644 -0.78916234 3.4371705
-2.5134387 -0.77851832 3.4352851
-0.37526557 -0.77804542 3.4379423
-1.8663812 -0.76954788 3.4357066
1.1435801 -0.769629 3.4359
0.13554716 -0.96113324 3.4496601
0.38041589 -0.96123832 3.4407477
-0.31813192 -0.95727432 3.4448462
-2.3054686 -0.93287128 3.4469991
-2.2902493 -0.9277885 3.4464059
-1.3525162 -0.9255656 3.4485459
0.62999755 -0.92556536 3.4485464
-1.8541597 -0.91036618 3.4441886
-1.8043044 -0.91158998 3.448879
1.081887 -0.91170609 3.4488823
1.1316714 -0.91025758 3.4440947
-2.588192 -0.90329361 3.4486289
-2.5211165 -0.89051235 3.4419196
-2.4319532 -0.89291954 3.4434645
-1.808545 -0.89894664 3.4434218
1.0861806 -0.89875877 3.4432447
0.077302024 -0.8868649 3.4418013
0.11466785 -0.88711566 3.4479873
-2.4319925 -0.87877125 3.4417419
-2.3802109 -0.860726 3.445277
-0.1863426 -0.86019206 3.4407601
-0.087450504 -0.86112261 3.4485288
-2.5148051 -0.85793871 3.4474335
-2.8433144 -0.83239353 3.4442236
-2.5193121 -0.81037307 3.4493084
-1.8726165 -0.81103301 3.448967
1.1502646 -0.81082141 3.4490623
-0.026870131 -0.80096841 3.4406335
-2.7373948 -0.79117048 3.4490259
-1.6440978 -0.79343402 3.4472816
-1.0994698 -0.79401505 3.4466724
0.37691489 -0.79388785 3.446516
0.9214589 -0.79351103 3.4472523
-2.2505922 -0.78353989 3.445673
-0.37393039 -0.78984261 3.4419668
0.082616717 -0.78674513 3.442342
-1.2627399 -0.76894259 3.4486244
0.54033744 -0.76869857 3.4480705
-2.6159434 -0.95968097 3.451369
-0.0055055618 -0.95997596 3.4558473
0.14758909 -0.95727396 3.4543371
-2.288018 -0.93302041 3.4565103
-1.6827688 -0.93619525 3.458607
-0.018862009 -0.93059456 3.4581656
0.96024948 -0.93619573 3.4586055
1.5654329 -0.93287128 3.4565732
-2.5519662 -0.91481411 3.4556506
-1.9632807 -0.91804188 3.4507337
1.240761 -0.91804248 3.4507337
-1.3643748 -0.90555692 3.4520626
0.1029169 -0.90195 3.4530022
0.64164931 -0.90578216 3.4521644
0.19806305 -0.89259779 3.4536104
-2.1860821 -0.8847267 3.4545286
1.4585716 -0.88320702 3.4525461
-0.39263165 -0.87419182 3.4505508
-1.1854036 -0.83589369 3.4560199
0.46288431 -0.83589315 3.4560184
-2.7183516 -0.82474327 3.4599323
0.27847624 -0.82726705 3.4575059
-2.4061031 -0.81248152 3.4543576
-2.2535048 -0.81530952 3.4593687
-2.2238009 -0.81848645 3.4543471
-1.9599271 -0.81230569 3.4551952
1.2375085 -0.81219101 3.4551978
1.5012798 -0.81848752 3.4543476
1.5310538 -0.8154583 3.4594841
-2.795306 -0.80825853 3.459764
-2.3837523 -0.80424714 3.4555304
-1.8631182 -0.80404782 3.4501774
1.1406546 -0.80395973 3.450263
-2.2874932 -0.78561378 3.4580386
-1.1531363 -0.78402084 3.4543445
-2.4084458 -0.77792329 3.4587059
-1.9012419 -0.76623845 3.4524789
1.1786097 -0.76607227 3.4521017
-2.6158717 -0.7546773 3.4529748
-2.4822242 -0.75032449 3.4550254
-2.9659355 -0.99990427 3.4628415
-2.729146 -0.99990511 3.4628415
-2.4923573 -0.9999032 3.4628415
-2.2555687 -0.99990565 3.4628415
-2.0187783 -0.99990475 3.4628415
-1.7819905 -0.99990457 3.4628415
-1.5452038 -0.99990594 3.4628415
-1.3084141 -0.99990463 3.4628415
-0.1244708 -0.99990594 3.4628415
0.11231801 -0.99990416 3.4628415
0.34910586 -0.9999038 3.4628415
0.58589339 -0.99990571 3.4628415
0.8226831 -0.99990445 3.4628415
1.0594717 -0.99990469 3.4628415
1.2962596 -0.99990439 3.4628415
-1.8651869 -0.96042037 3.4602563
-0.36459997 -0.96091783 3.4676247
1.1426843 -0.96057642 3.4602792
-1.4190739 -0.95760888 3.4636383
0.69653344 -0.95744187 3.463707
-1.6963277 -0.93351662 3.4679554
0.97389054 -0.93337023 3.4679365
-2.6344571 -0.92669463 3.4649734
-2.3818798 -0.92669463 3.4649734
-2.1293013 -0.92669582 3.4649725
-1.8909845 -0.92513621 3.4687476
-1.876725 -0.92669439 3.4649734
-1.7860281 -0.92738581 3.4659207
-1.6241477 -0.92669439 3.4649734
-1.3715632 -0.92684937 3.4648573
-1.1189873 -0.92685008 3.4648569
-0.10868305 -0.92685056 3.4648566
0.14389175 -0.92685008 3.4648571
0.39646643 -0.92684937 3.4648573
0.64904207 -0.92685032 3.4648566
0.90162617 -0.92669559 3.464973
1.0635922 -0.92764163 3.4660382
1.1542034 -0.92669535 3.464973
1.1684055 -0.92526782 3.4688087
1.4067807 -0.92669511 3.464973
-0.21740776 -0.91117442 3.4607575
-2.6211841 -0.90468407 3.4619217
-2.4923573 -0.90009683 3.4628415
-2.4161358 -0.90933025 3.4680047
-2.2555687 -0.90009439 3.4628415
-2.0187783 -0.90009528 3.4628415
-1.7829782 -0.902421 3.4649758
-1.5452038 -0.90009409 3.4628415
-1.3084141 -0.9000954 3.4628415
-1.0716254 -0.90009516 3.4628415
-0.21195054 -0.90816444 3.4695508
0.11231801 -0.90009588 3.4628415
0.34910586 -0.90009624 3.4628415
0.58589339 -0.90009433 3.4628415
0.8226831 -0.90009558 3.4628415
1.0594717 -0.90009534 3.4628415
1.0612316 -0.90497583 3.4672143
1.2962596 -0.90009564 3.4628415
1.5330482 -0.90009534 3.4628415
-2.9099929 -0.89826214 3.4632831
-2.697598 -0.89826238 3.4632835
-2.4852035 -0.89826143 3.4632821
-2.2728083 -0.89826214 3.4632831
-2.239588 -0.89382875 3.4636681
-2.0604148 -0.89826214 3.4632831
-1.8480198 -0.89826262 3.463284
-1.635633 -0.8981818 3.4631732
-1.4232321 -0.89826262 3.463284
-1.3543766 -0.89435101 3.4645011
-1.2108376 -0.8982619 3.4632826
-0.36126015 -0.89818203 3.4631734
-0.14886311 -0.89818084 3.4631712
0.063529044 -0.89826238 3.4632835
0.10021403 -0.89023715 3.4631939
0.27592441 -0.89826167 3.4632826
0.48831865 -0.8982619 3.4632826
0.63170087 -0.89401615 3.4639421
0.70071185 -0.8982631 3.4632845
0.91310716 -0.89826238 3.4632835
1.1255006 -0.89826238 3.4632835
0.4275808 -0.8847543 3.4691141
-0.14057846 -0.86110485 3.4665024
-0.019438148 -0.86013395 3.4680042
-2.5962715 -0.85974562 3.4636436
-2.226429 -0.83304143 3.4652958
-2.6578479 -0.82880628 3.4624691
-0.15665863 -0.82978392 3.4697027
-1.4980357 -0.81029451 3.4631131
0.44374698 -0.81112278 3.4657276
0.77560186 -0.81018889 3.4631598
-1.6139998 -0.80819404 3.4641595
-1.5637224 -0.802701 3.467468
0.84120142 -0.80269992 3.4674666
0.8914789 -0.80819416 3.4641576
-2.4861388 -0.79600871 3.4617515
-1.7235615 -0.79484975 3.4618504
-1.7091252 -0.79493105 3.4639554
-0.9436242 -0.79865873 3.4619009
0.22100234 -0.79877889 3.4619989
0.41413623 -0.79247075 3.4604731
0.98660517 -0.79493177 3.4639559
1.00104 -0.79484999 3.4618528
-2.2261558 -0.78499568 3.4652956
-1.5785558 -0.78556323 3.4637609
0.85637218 -0.78534412 3.4649887
0.13060716 -0.77321225 3.4636254
-2.4477634 -0.76522374 3.4604084
-0.11598292 -0.96081007 3.4766746
-1.964977 -0.95777541 3.4729562
1.2424378 -0.9576084 3.4730237
-2.2316556 -0.93677616 3.4784079
1.5091363 -0.93677664 3.4784064
-0.36125937 -0.92710078 3.4718885
-0.34886193 -0.92993939 3.4719727
-1.5447543 -0.91197133 3.4770613
-1.3865963 -0.917521 3.4733932
0.66412461 -0.9176662 3.4732809
0.82220209 -0.91175866 3.4768777
-2.0504055 -0.90048105 3.4792967
-0.046218872 -0.90407705 3.4714842
1.3278836 -0.90048009 3.4792957
-2.8609033 -0.89565718 3.4744108
-2.4931421 -0.89466083 3.4787545
-2.4223747 -0.89236766 3.4762747
-1.7101052 -0.89311373 3.4775622
-0.18178141 -0.89665425 3.4799049
0.98746532 -0.89303493 3.4775321
-0.46075252 -0.88873422 3.4729767
-2.3785338 -0.87757093 3.4773586
-1.8735559 -0.86067176 3.4722514
-1.8194807 -0.86902821 3.4778895
-1.6338519 -0.86604846 3.4777808
-1.5308324 -0.86830175 3.4734483
0.1085299 -0.86101472 3.4755456
0.8084259 -0.86855221 3.472892
0.91127741 -0.86613309 3.4775922
1.0966802 -0.86894423 3.4780836
1.1510537 -0.86051762 3.4722738
-0.35742611 -0.84048688 3.4748247
-1.7410344 -0.83647954 3.4759228
1.0185144 -0.8364799 3.4759221
-0.48415542 -0.82698637 3.4772296
-0.23831415 -0.82685834 3.4772885
-1.6528478 -0.81797481 3.4768696
0.930327 -0.81797421 3.4768686
-1.117276 -0.8095454 3.4774928
0.39484495 -0.80943835 3.4775414
-2.3437202 -0.79316056 3.470516
-2.047796 -0.79858756 3.4739394
0.41595507 -0.79425907 3.4706845
-0.17347863 -0.78553301 3.4784651
-1.573679 -0.7744115 3.4719465
-1.2618908 -0.77771091 3.4777696
0.53862345 -0.77792406 3.4777455
0.85115862 -0.77441144 3.4719453
-1.354424 -0.96042705 3.487442
0.13390282 -0.96070099 3.4857707
0.63190448 -0.960428 3.487442
-2.5078685 -0.95794147 3.4822226
-1.2379938 -0.95998144 3.4833064
0.51547348 -0.95998359 3.4833069
-1.3511138 -0.93195772 3.4874177
-1.0987575 -0.93414736 3.4885128
0.37631673 -0.93400228 3.4884958
0.62852329 -0.93180931 3.4874804
-2.4356918 -0.92470157 3.4891825
-1.2761607 -0.92697775 3.4856534
0.55372894 -0.92723572 3.4857731
-2.0986454 -0.91224396 3.4885399
-2.0679011 -0.91036475 3.4888139
1.3761256 -0.91224396 3.4885385
-2.2109053 -0.90392399 3.4824228
-2.5553229 -0.89291394 3.4802449
-1.2198393 -0.89993787 3.4860854
0.49746707 -0.89975119 3.4859095
-2.2196493 -0.88305569 3.483145
-0.25381678 -0.88517237 3.4846368
-1.2278907 -0.87779093 3.484489
-0.32566577 -0.87924612 3.483856
0.50477296 -0.87761515 3.4844697
0.35885453 -0.86076123 3.4846144
-1.7666382 -0.83224392 3.4894023
-1.6213111 -0.83368051 3.485965
0.89887351 -0.8338263 3.4859455
1.0440501 -0.83239138 3.4894643
0.12491643 -0.82945669 3.4880624
0.16504841 -0.8118602 3.4818838
-0.13128626 -0.80180627 3.4826424
-2.6455884 -0.7956714 3.4811437
-1.5841105 -0.79246897 3.4857335
-1.2078264 -0.79066223 3.4801819
0.86149395 -0.79253405 3.4856625
-0.034547366 -0.77086806 3.4861748
-2.5854933 -0.76527297 3.4874415
0.16362341 -0.76151198 3.4872284
-1.6332253 -0.75741887 3.4866476
0.91132724 -0.75776565 3.4877203
-1.1075323 -0.96075583 3.4948928
0.38506693 -0.96059102 3.4949136
-2.7706361 -0.93734741 3.4978504
-1.7086449 -0.92930293 3.4902618
-0.068005919 -0.92939538 3.4903798
0.98612404 -0.92930281 3.490263
-2.850888 -0.91243863 3.4928322
-2.7062802 -0.91246772 3.4989021
0.080078721 -0.91713929 3.4962292
-2.6453903 -0.90308619 3.4980066
-2.2360678 -0.90420282 3.4919386
-1.3761721 -0.90269947 3.4940803
0.6537748 -0.90288091 3.4942515
-2.5517993 -0.8960731 3.4912694
-2.1764591 -0.89291859 3.49681
-1.8485012 -0.88903081 3.4994731
-1.2055662 -0.88420981 3.4945798
0.48337579 -0.88401592 3.4941545
-1.5398246 -0.87391907 3.4911962
0.81730574 -0.87391955 3.4911959
-1.3642995 -0.86046124 3.4993892
-1.3330324 -0.86066926 3.4937513
0.50000203 -0.86007631 3.4953904
0.61051214 -0.86066949 3.493752
0.64178061 -0.86046118 3.4993885
-2.4078693 -0.85705721 3.4936917
-2.2865956 -0.83705533 3.4954658
-1.25348 -0.83008742 3.4922872
-2.8284688 -0.82897985 3.4936383
0.038488209 -0.82657409 3.4972358
0.53087473 -0.82993472 3.4922237
-2.7328341 -0.81037188 3.4938908
-2.2505808 -0.81299138 3.4944689
-2.1976829 -0.81248224 3.4978726
-1.0746037 -0.81759906 3.4997883
0.35213464 -0.81745362 3.4996758
-2.3917401 -0.80509198 3.4905708
-2.2727334 -0.80968618 3.4953926
-2.0365963 -0.80493945 3.4983788
0.0076671839 -0.80878329 3.4921117
0.12419894 -0.79388881 3.4992814
0.25152498 -0.78711981 3.4963932
0.47418609 -0.78428936 3.494555
-1.3599828 -0.96064562 3.5040817
0.63751841 -0.96048242 3.5041022
-0.21001554 -0.93462366 3.5086663
0.038125634 -0.92682469 3.5057278
0.21567333 -0.92899436 3.508955
-0.005399704 -0.91117418 3.5050223
-2.5381699 -0.90002561 3.5096829
0.035882816 -0.90560383 3.503912
-2.7978365 -0.89689839 3.5066903
-2.7295444 -0.8905822 3.5003006
1.1266489 -0.8894943 3.5004911
-2.5160732 -0.87700373 3.5017331
-1.5859802 -0.86057746 3.5029359
-0.1195181 -0.86995298 3.5020733
-0.072776496 -0.86985946 3.5060613
0.86346006 -0.86057806 3.5029359
-2.6860082 -0.8543064 3.5001292
-1.8458021 -0.85712814 3.5030532
1.1232824 -0.8571279 3.5030527
-2.8585858 -0.83899909 3.5011117
0.30518264 -0.83445078 3.5062249
0.40941179 -0.82912588 3.5066137
-1.3780608 -0.81112242 3.5099485
0.65554094 -0.81112182 3.509949
-0.38591051 -0.80800855 3.5069745
-0.336514 -0.80811715 3.506927
0.10296535 -0.80424702 3.5004199
-2.945471 -0.79117024 3.5071788
-2.4559197 -0.78237557 3.5030093
-2.047183 -0.78107619 3.5099008
-1.850902 -0.78954113 3.5000441
1.1289142 -0.78918058 3.5008559
1.3238201 -0.78132415 3.5098753
0.25090551 -0.76659393 3.5007479
-2.6824861 -0.96056211 3.5185013
-1.6137309 -0.96053565 3.5133185
0.11846864 -0.96027732 3.5147445
0.89126843 -0.96037138 3.51334
-1.7617384 -0.95982873 3.5108848
1.0392195 -0.95982969 3.5108857
-2.6320882 -0.93341553 3.5154788
-0.38625813 -0.93101615 3.5191832
-2.3440681 -0.91177285 3.5132375
-0.94620419 -0.91650081 3.5107982
-0.21098924 -0.91645873 3.5195868
-0.53052914 -0.90875208 3.5106187
-1.1764724 -0.89734328 3.5167332
-0.057333887 -0.89379883 3.5141087
0.4034119 -0.89252889 3.5108743
-2.6126685 -0.88728362 3.513514
-2.1209044 -0.88565773 3.5135372
-2.0169911 -0.88123417 3.5165496
-1.6147819 -0.88389921 3.5136361
-1.0939307 -0.88217652 3.5136623
0.37181908 -0.88243878 3.5134339
0.89252436 -0.88407153 3.5134871
1.2936232 -0.88097703 3.5165226
1.3983849 -0.88565832 3.5135365
-2.4798877 -0.87302732 3.5135598
-1.8739688 -0.8750273 3.5135334
-1.4711515 -0.87311548 3.5146017
-1.2866606 -0.87696451 3.5135071
-0.0051123798 -0.87866408 3.5136395
