# .PCD v0.7 - Point Cloud Data file format
VERSION 0.7
FIELDS x y z
SIZE 4 4 4
TYPE F F F
COUNT 1 1 1
WIDTH 1511
HEIGHT 1
VIEWPOINT 0 0 0 1 0 0 0
POINTS 1511
DATA ascii
1.900354 -0.88975418 4.6045585
3.5506389 -0.88987106 4.6093602
1.9831449 -0.86583972 4.6060925
3.345645 -0.85981071 4.6058788
2.0227373 -0.82946134 4.6044188
3.5640173 -0.82162285 4.609849
1.8058894 -0.81433463 4.6052656
2.4704549 -0.81346416 4.60781
2.221992 -0.79687566 4.6074419
2.6927943 -0.7908681 4.607152
2.219218 -0.77789158 4.6024981
2.2793121 -0.76221395 4.6033144
3.5633106 -0.76055741 4.6054354
2.8639593 -0.95625341 4.6159019
3.4256701 -0.93387091 4.6158171
1.7117019 -0.91220641 4.6178265
2.7799954 -0.91282332 4.6106348
3.1120408 -0.91764468 4.6174426
2.3173635 -0.89817405 4.6131072
2.7491169 -0.89792383 4.6195164
3.6397071 -0.89768779 4.6139202
2.6422648 -0.8829729 4.6106954
3.7071266 -0.8860234 4.6182361
3.2428272 -0.83417565 4.6131492
2.573267 -0.8266443 4.6181979
2.9343495 -0.81485915 4.617909
3.07019 -0.81491649 4.6140733
3.3629763 -0.81846583 4.6147299
3.542119 -0.81176317 4.611331
3.1256075 -0.80291474 4.6126981
3.519331 -0.80291426 4.6154509
2.0123482 -0.79254216 4.6142449
2.1078401 -0.79848897 4.6179786
1.9887166 -0.78489244 4.6149817
3.2780509 -0.74863362 4.6164913
1.9809533 -0.96001184 4.6212082
2.2895136 -0.95643091 4.6229534
2.0128913 -0.92577767 4.6244078
2.3738139 -0.92641819 4.6212006
3.5776477 -0.91644049 4.6248331
1.7140625 -0.90551913 4.6292391
2.281857 -0.90895367 4.6216373
2.8292298 -0.9020797 4.6268625
3.1115561 -0.90802431 4.6267962
2.0912685 -0.89225459 4.6214705
2.2735209 -0.89382517 4.6221895
2.4142127 -0.89873505 4.6237679
3.0537126 -0.8908726 4.6204848
3.0769181 -0.89961815 4.6285486
3.2488234 -0.89571011 4.6282539
2.4380457 -0.8842752 4.6236944
2.8789022 -0.88483524 4.628623
3.0885761 -0.88840675 4.6210222
2.1898525 -0.87679327 4.624351
3.044313 -0.8728531 4.6213164
1.7992156 -0.86089158 4.6205502
2.8357959 -0.82517916 4.620254
2.3630211 -0.81232476 4.6218376
1.832962 -0.8004595 4.6297593
2.3876743 -0.80753076 4.6232944
2.6169558 -0.80316824 4.6250701
1.8144243 -0.79462439 4.6224151
2.4839489 -0.79372817 4.6272621
2.5925291 -0.79047942 4.6246367
3.0873384 -0.7910971 4.6274238
3.2464182 -0.79615617 4.6263018
3.4788885 -0.79009461 4.6268592
3.61518 -0.779351 4.6215987
3.1014555 -0.96102357 4.6353626
2.2302032 -0.93751836 4.6312704
2.8007081 -0.93211544 4.6320939
3.1781819 -0.93351841 4.6374254
2.2908702 -0.92928624 4.6324635
2.9178615 -0.9105593 4.6383457
2.0872259 -0.89114976 4.6358428
2.2871394 -0.89716423 4.6381154
2.6132846 -0.88673389 4.6331658
3.289355 -0.86026382 4.6340384
1.891151 -0.85886854 4.6359787
1.9623123 -0.85998547 4.6307039
1.745811 -0.83715969 4.6323566
2.2388911 -0.83253968 4.6352248
2.9946713 -0.83375454 4.6347027
3.3465667 -0.83203065 4.6332889
2.5869365 -0.81418633 4.638598
3.1066351 -0.812886 4.6377969
3.3873043 -0.79721141 4.6346784
2.3233163 -0.78393757 4.6357336
3.016516 -0.78859305 4.6388183
3.3695669 -0.78933883 4.6340194
2.1784844 -0.93291759 4.6442375
2.7608566 -0.93807673 4.6424875
2.5558696 -0.92521822 4.6498051
2.6802654 -0.92598438 4.6452799
2.2415285 -0.91429591 4.6440201
2.5428648 -0.91741163 4.6457562
3.4231575 -0.91208065 4.6409926
2.8449471 -0.90084404 4.6499653
2.1243064 -0.88492793 4.6457348
2.295754 -0.88393354 4.6451721
3.1052363 -0.86120504 4.6445522
2.2437749 -0.85758793 4.6400294
2.7881498 -0.85765582 4.6468163
3.5416214 -0.84281433 4.6496596
2.2829299 -0.83758402 4.643621
2.716516 -0.83268595 4.6454573
3.2949846 -0.83070588 4.6441832
3.4819191 -0.83381641 4.6460023
1.9399197 -0.828233 4.6445446
2.8805852 -0.82628703 4.6422443
2.8995712 -0.82719517 4.6470728
3.3861785 -0.82474905 4.645812
2.017832 -0.81331396 4.6453152
2.7993717 -0.81781101 4.6429424
2.1378732 -0.80932397 4.6481795
2.1150606 -0.78987247 4.6497169
3.0333755 -0.78699827 4.6425433
3.4343009 -0.78093904 4.6483641
2.8857524 -0.77573395 4.6478267
2.507937 -0.9598605 4.6511345
2.9282873 -0.93316185 4.6592426
3.0958996 -0.93331379 4.6532202
3.2821417 -0.93862367 4.6535063
3.3954701 -0.92637157 4.6551738
3.267091 -0.91131115 4.6527305
3.5341358 -0.91177046 4.6546898
2.1412473 -0.90447861 4.6522899
2.5597796 -0.8924669 4.6580167
2.9836109 -0.89839482 4.6536126
2.3519266 -0.88344973 4.6595349
3.0088675 -0.88695729 4.6517553
3.6027029 -0.86262739 4.6583629
3.3295226 -0.85772234 4.6535664
2.0984533 -0.83318418 4.6574068
2.7440383 -0.8334645 4.6564946
2.8104703 -0.8381356 4.6546736
2.2340641 -0.81350517 4.6596088
2.8675179 -0.81491649 4.6563892
2.8893037 -0.80841446 4.6534033
1.9275765 -0.79554248 4.6570597
2.1316288 -0.79688668 4.6525497
2.5696473 -0.79893196 4.6533952
2.3383744 -0.78405535 4.6572642
2.4706089 -0.7818892 4.6588693
2.5411632 -0.78704965 4.6511116
1.9237777 -0.9999063 4.664072
2.1613758 -0.99990469 4.664072
2.3989737 -0.99990511 4.664072
2.6365716 -0.99990559 4.664072
2.8741689 -0.99990547 4.664072
3.1117661 -0.99990535 4.664072
3.349365 -0.99990439 4.664072
2.6020634 -0.96087658 4.6644859
1.9269255 -0.92805457 4.6664195
2.9900348 -0.92554748 4.66962
1.921042 -0.91220737 4.6615357
2.1613758 -0.90009534 4.664072
2.3989737 -0.90009493 4.664072
2.4682493 -0.90288043 4.6628757
2.6365716 -0.90009445 4.664072
2.8741689 -0.90009457 4.664072
3.1117661 -0.90009469 4.664072
3.349365 -0.90009564 4.664072
3.586961 -0.90009409 4.664072
2.123143 -0.89817357 4.667387
3.2671542 -0.89644051 4.6695261
3.4558127 -0.8927145 4.661149
2.0824659 -0.86542177 4.6619148
2.487699 -0.85992807 4.6605673
3.1385231 -0.85868359 4.6666069
2.8155696 -0.83009219 4.6681938
3.3287446 -0.83867812 4.6655316
3.1913435 -0.82607877 4.6665812
2.5721903 -0.81242931 4.6654162
2.7753971 -0.81065679 4.6645098
3.7514596 -0.8124578 4.6683125
2.2611318 -0.80399787 4.6607614
1.7448769 -0.7902053 4.66607
3.1892366 -0.79647386 4.6625199
3.3466506 -0.79990339 4.6686134
2.0520277 -0.78562927 4.6639137
2.0829256 -0.78493696 4.6684723
3.691689 -0.7762779 4.6652112
2.2369432 -0.95730031 4.6781726
2.0835028 -0.92509663 4.6769619
2.3410518 -0.92525578 4.676837
2.5986123 -0.92525697 4.676836
2.8561742 -0.92525697 4.676836
3.1049716 -0.9249202 4.6756077
3.1137362 -0.92525697 4.676836
3.3712969 -0.92525578 4.676837
3.6288352 -0.92541468 4.676712
2.1551986 -0.91317236 4.6791549
3.3762276 -0.91556454 4.6732512
1.9280386 -0.90635514 4.6760216
2.5758085 -0.9035365 4.6757913
2.4764497 -0.89382565 4.6789045
2.9328866 -0.87235594 4.6770701
2.9793093 -0.87629539 4.6763921
2.6072898 -0.86099917 4.673635
3.355876 -0.84795535 4.6700287
2.4909556 -0.83317518 4.6784992
2.2286708 -0.81700265 4.6713958
2.302206 -0.81398171 4.677125
1.9732991 -0.80057615 4.6768875
3.1276228 -0.80204052 4.6713696
1.9139667 -0.79848874 4.6721621
2.0358686 -0.79527903 4.6740685
2.331378 -0.79048038 4.6791639
3.1506088 -0.7998513 4.6700063
2.1879244 -0.7848922 4.6712189
3.2972145 -0.7605567 4.6798015
2.7830343 -0.95746911 4.6848745
3.0376911 -0.95970553 4.6812181
2.675951 -0.93280196 4.6812739
2.0370677 -0.91419339 4.6866226
2.1664119 -0.89658034 4.6874723
2.3767853 -0.89948678 4.6863179
2.4745026 -0.88966244 4.6832461
2.6384325 -0.88427532 4.6802635
3.7767391 -0.85613477 4.6875696
2.5825717 -0.83278972 4.6898899
1.943608 -0.82589304 4.6874595
1.8756862 -0.81270707 4.6809978
3.3932595 -0.81217664 4.6804409
1.8715051 -0.80167115 4.6871386
2.0768943 -0.80167067 4.6871386
2.2822855 -0.80167091 4.6871386
2.487674 -0.80167067 4.6871386
2.693063 -0.80167019 4.6871395
2.8984387 -0.80159378 4.6872406
3.1038115 -0.80151701 4.6873436
3.3091815 -0.80143952 4.6874461
3.3562708 -0.80092001 4.6894202
3.3813553 -0.8091985 4.6830091
2.6864469 -0.79366153 4.6839786
3.2215815 -0.79835153 4.6830363
2.1001322 -0.96088529 4.6937776
3.3261037 -0.95763671 4.6915402
2.1816275 -0.93241113 4.6976666
3.081326 -0.93004894 4.6959295
3.3031783 -0.92510319 4.6942253
3.0345883 -0.91491938 4.6942282
3.3008015 -0.9149363 4.694809
2.1132927 -0.903669 4.698288
3.0179377 -0.90269423 4.6997557
2.1314545 -0.89337909 4.6965418
2.4045794 -0.88185835 4.6941109
2.5819893 -0.88994169 4.6988492
2.5940945 -0.87566113 4.6986589
3.0158391 -0.85987008 4.6905866
3.1983066 -0.85638106 4.6945109
2.3309333 -0.82971597 4.692359
3.5053697 -0.82571399 4.6911535
2.6648531 -0.81481469 4.6987886
1.9111913 -0.80481464 4.6958613
1.7080343 -0.7901054 4.6940289
2.1319859 -0.79402947 4.6943679
2.1831937 -0.77830446 4.696496
2.9359961 -0.77710843 4.6981063
2.0940168 -0.76103783 4.6932759
3.172668 -0.75999355 4.6913986
1.656355 -0.96000493 4.7054424
2.4212093 -0.93257713 4.703496
3.4323583 -0.93355989 4.7073765
2.1304185 -0.91210079 4.7051573
3.4248967 -0.9137888 4.7018671
2.4396391 -0.90719795 4.7058692
2.4395602 -0.89995289 4.7072783
3.186223 -0.89954042 4.7039576
2.0527296 -0.884718 4.7074566
2.1014686 -0.87815046 4.704824
2.1067989 -0.8609466 4.702847
3.0225377 -0.86035287 4.7083836
1.8675219 -0.85397959 4.7058382
2.6231136 -0.85645199 4.701335
2.2353909 -0.83288056 4.7007179
2.5028014 -0.8276515 4.7060032
2.5823672 -0.81463885 4.7084608
2.7813263 -0.81242907 4.7090821
1.7029164 -0.80637109 4.7031717
2.5848517 -0.7982325 4.7004113
1.9248525 -0.78983051 4.7036538
3.6414585 -0.78628898 4.7060032
2.0623503 -0.76594424 4.7058892
3.4042764 -0.96116805 4.7172313
1.6661545 -0.92633021 4.7167773
2.9915705 -0.9268384 4.7146473
1.9226196 -0.91325271 4.7186909
2.4388118 -0.91379905 4.7107401
2.6875448 -0.91416097 4.7154903
1.782716 -0.90055716 4.7183356
3.4208601 -0.90080023 4.7191095
2.8161564 -0.89259577 4.7113791
3.3639216 -0.89962578 4.7174139
3.5826509 -0.87422562 4.7110829
2.7255018 -0.86870998 4.7178378
1.8410109 -0.82946181 4.7167311
2.4826458 -0.82547319 4.7131081
1.7733965 -0.79548281 4.7119455
2.6130338 -0.79941636 4.7153864
2.8069017 -0.79514396 4.7193513
2.8137002 -0.78470838 4.7174406
1.9080011 -0.93716574 4.7230015
2.1638825 -0.93221092 4.7259607
2.5977929 -0.92966914 4.7202592
1.8326166 -0.91419339 4.72931
2.0619154 -0.90194392 4.728591
1.9288974 -0.89810944 4.7215657
2.8850861 -0.89508152 4.7265592
2.1901062 -0.88778043 4.726088
2.0932696 -0.86097628 4.7221222
1.9773817 -0.83244336 4.7231326
3.5287077 -0.83680034 4.7231259
1.9572451 -0.80522233 4.7295284
2.7287917 -0.80126804 4.7283964
1.7200925 -0.79848897 4.7263451
2.2088032 -0.79141545 4.7220325
3.0811138 -0.79619861 4.7283406
3.155508 -0.79990292 4.722034
2.3871861 -0.78491431 4.7273374
2.6608567 -0.76897293 4.7257724
3.6218832 -0.96220624 4.7335777
2.1811152 -0.95985419 4.7355108
3.2226813 -0.95607615 4.7339206
1.7708787 -0.93640423 4.7346497
1.989364 -0.93640447 4.7346497
2.2078481 -0.93640614 4.7346506
2.426333 -0.9364059 4.7346506
2.4439101 -0.93772948 4.7334504
2.6448185 -0.93640423 4.7346497
2.8632872 -0.93653917 4.7347064
3.0817709 -0.93654037 4.7347074
3.1740646 -0.93170696 4.7314529
3.3002546 -0.93653965 4.7347069
2.3351946 -0.91359854 4.7371693
3.0979326 -0.91493702 4.7371664
1.7640834 -0.90456808 4.7331133
2.9413228 -0.90802407 4.7351384
2.6497483 -0.89840674 4.7308445
2.6793289 -0.89389229 4.735724
3.0830848 -0.89566696 4.7305613
2.8387642 -0.88429856 4.7369514
2.33916 -0.86550677 4.7334504
3.4042432 -0.86241865 4.7321835
1.9625922 -0.8373726 4.7349453
3.0279231 -0.82518017 4.7389946
2.8584051 -0.81528711 4.7393365
2.2160363 -0.80744565 4.7326403
2.0701845 -0.79034972 4.7335196
2.5829334 -0.79848242 4.7373371
1.9253377 -0.78591907 4.7354221
2.227823 -0.78787869 4.7328472
2.9069221 -0.96102285 4.7464895
3.3903997 -0.96210438 4.7448134
2.0717511 -0.95642924 4.7473512
2.6455743 -0.95625484 4.740654
2.5452096 -0.93251789 4.7426915
2.9703727 -0.93841934 4.7437234
2.1090214 -0.92928767 4.744853
2.2040601 -0.92577767 4.7425566
2.3397598 -0.91210079 4.7488651
2.5556731 -0.91267049 4.749445
2.7182202 -0.91441894 4.7418571
3.3237047 -0.91764468 4.7482581
2.6268024 -0.90976238 4.7420115
2.7908568 -0.89772773 4.7410889
3.4625058 -0.88903916 4.7424335
1.7079601 -0.86654359 4.7487411
3.1723275 -0.86217755 4.7433867
2.161849 -0.85998422 4.7446899
2.4953332 -0.83792746 4.7452345
2.922899 -0.83318365 4.7440982
3.0874205 -0.83243388 4.7443376
2.24773 -0.81346416 4.7454615
2.4621716 -0.81491613 4.7410212
3.5731494 -0.81846547 4.7446232
2.017266 -0.80045938 4.7470574
2.2693169 -0.79267001 4.7491512
2.5570052 -0.79082769 4.7495432
2.8889968 -0.79366153 4.7405868
2.822505 -0.78290033 4.7461262
1.7929773 -0.96018285 4.7518897
3.1578093 -0.96216118 4.7560768
1.928421 -0.93331283 4.7537155
2.5273936 -0.93266588 4.7523937
3.4874747 -0.93882799 4.7537928
1.9772614 -0.91302705 4.7591939
3.2524025 -0.91111112 4.7568374
1.9896874 -0.89972383 4.7577524
2.2750905 -0.87427419 4.7552948
2.3970225 -0.87050295 4.7588921
1.7912124 -0.8634789 4.7515998
2.911257 -0.86120391 4.7553635
2.9392431 -0.862095 4.7546701
3.6408758 -0.86492664 4.7504044
2.021194 -0.85999191 4.7503824
2.462806 -0.83293575 4.7553911
3.0186741 -0.83847606 4.7553406
3.1161914 -0.83058286 4.7547541
3.5814643 -0.82659054 4.7550774
2.9904604 -0.81242979 4.7527461
1.8362823 -0.80870175 4.7534695
2.3859661 -0.80450374 4.7534704
1.7346179 -0.78980964 4.7574773
2.801553 -0.77297896 4.7539921
2.0780771 -0.76921642 4.7546334
3.0310483 -0.76047063 4.7539673
2.0515597 -0.96007264 4.7638125
2.9240439 -0.96205997 4.7674227
2.7085855 -0.95985943 4.7657547
2.7481344 -0.9252187 4.7686319
1.8742002 -0.90155768 4.766264
2.0798786 -0.90163589 4.766366
2.285567 -0.90163541 4.7663651
2.4912534 -0.90163589 4.766366
2.6969419 -0.90163565 4.766366
2.9026151 -0.90171456 4.766469
3.1082857 -0.90179253 4.766571
3.3139558 -0.90187001 4.7666721
3.433466 -0.90900421 4.7639952
2.0266554 -0.8989265 4.7657442
3.0725291 -0.89272463 4.7647405
3.0866017 -0.88884306 4.7630105
3.0926602 -0.88483632 4.7646646
2.2803485 -0.86006391 4.7623253
2.7050111 -0.86200994 4.7660103
3.4615624 -0.86843663 4.7607303
2.4560308 -0.85758805 4.761281
2.9998212 -0.85765415 4.7677331
1.8501132 -0.83342957 4.7662349
2.1101251 -0.82810318 4.7643261
1.7560661 -0.8111679 4.7649336
2.4835086 -0.8100543 4.768281
3.1305025 -0.81581545 4.7697601
3.1543469 -0.81552052 4.7627244
2.7192271 -0.80849922 4.761539
1.9879777 -0.78348941 4.7645693
2.7127976 -0.77656043 4.7639809
2.4070349 -0.96087754 4.7758965
2.6891241 -0.9619565 4.7788253
2.311487 -0.9599576 4.7757978
2.5918894 -0.92730236 4.7734957
2.7558293 -0.91726643 4.7775173
2.8950641 -0.91493654 4.7795229
2.9936032 -0.9151392 4.7725129
1.734676 -0.89810896 4.7758451
2.6180315 -0.89798784 4.7719049
2.6421413 -0.89156938 4.7799187
2.8436143 -0.89156938 4.7799182
3.1722813 -0.89901006 4.7722573
2.2464743 -0.8832922 4.7774506
2.537029 -0.88345009 4.7739367
2.6310186 -0.87617898 4.7725868
2.4696231 -0.86192459 4.7774038
3.0389185 -0.86835909 4.7751894
2.5407858 -0.85997123 4.7743044
2.6877575 -0.85992742 4.7748508
3.5406084 -0.85772067 4.7741489
2.6357913 -0.83009076 4.779304
2.8824258 -0.8128891 4.7763686
3.0108695 -0.81780922 4.7736535
2.8223112 -0.80388796 4.7777863
2.4146934 -0.79386008 4.7776589
2.9472532 -0.79814541 4.7708478
2.964365 -0.79990244 4.775455
2.5229363 -0.78405517 4.7713304
3.0554605 -0.78032905 4.7795963
2.232471 -0.7747851 4.7773552
2.4697728 -0.77064312 4.7792711
2.3184392 -0.76586092 4.7772551
2.5727673 -0.95984536 4.7878442
3.3807333 -0.93029976 4.7823977
3.197247 -0.91208088 4.7806125
3.385 -0.9018364 4.7854533
1.8361958 -0.8918258 4.7806106
2.0376728 -0.891783 4.7804952
2.2391627 -0.89169765 4.7802644
2.4406567 -0.89161229 4.7800345
2.4932489 -0.89368546 4.7850509
3.0450718 -0.89161205 4.7800336
3.246526 -0.89165449 4.780149
2.7932217 -0.88297325 4.7859974
3.479589 -0.87239718 4.7811422
2.0657074 -0.86210966 4.7850986
2.2330699 -0.86183947 4.788856
2.4128182 -0.86099857 4.7847276
2.7557886 -0.8603524 4.7829347
2.802578 -0.85987526 4.7863431
3.4849172 -0.84295273 4.7828455
1.7618866 -0.83698654 4.787415
1.979238 -0.83685327 4.7874703
2.0066588 -0.83213776 4.7898436
2.1965971 -0.83685398 4.7874699
2.4139578 -0.8368535 4.7874699
2.6313171 -0.83685422 4.7874699
2.8486781 -0.83685374 4.7874699
3.0660374 -0.83685446 4.7874699
3.2833982 -0.83685422 4.7874699
2.2594981 -0.81491697 4.7833366
2.811322 -0.81485927 4.7843714
3.1108057 -0.81136537 4.7826371
2.3227241 -0.8004809 4.7864571
1.8309786 -0.79172337 4.7875781
2.0318859 -0.79180646 4.7873487
2.1440897 -0.79957366 4.7869186
2.2327967 -0.79188967 4.787118
2.4336996 -0.79193091 4.7870035
2.6346183 -0.792014 4.7867737
2.7041607 -0.79045177 4.78582
2.8355119 -0.79201388 4.7867737
3.0363886 -0.79197228 4.7868896
3.2372658 -0.79193044 4.7870049
2.5863967 -0.78491426 4.7835746
3.0415316 -0.78124708 4.7822595
3.1891928 -0.7733736 4.7831502
3.5508547 -0.74859595 4.780757
2.4530411 -0.96185327 4.7902846
2.4498644 -0.95729971 4.7998042
2.8354123 -0.95973009 4.7999549
3.2388663 -0.95970708 4.7961402
3.298274 -0.92505229 4.7951727
2.5491385 -0.91199517 4.7924886
2.8822563 -0.89389253 4.792438
2.9626324 -0.8908726 4.7986269
1.9218783 -0.88376111 4.7995205
3.0390933 -0.88432199 4.7936392
3.1984489 -0.88890564 4.7977467
1.7001901 -0.86400425 4.7923126
3.0657375 -0.85977995 4.7984447
3.551734 -0.85771346 4.793417
3.2599828 -0.83357477 4.797791
3.7252474 -0.83167076 4.7937117
3.1995552 -0.812325 4.7964969
3.3985643 -0.81644559 4.7997446
3.212913 -0.80928147 4.7901082
3.4004612 -0.80159438 4.7965927
1.9631401 -0.79407299 4.7985883
2.9386706 -0.79955691 4.7910614
3.0915484 -0.79366213 4.797194
2.6556306 -0.77584743 4.7945147
3.1113701 -0.76845765 4.795773
1.9046068 -0.96088696 4.8054719
2.2157865 -0.96174848 4.8017998
2.9953651 -0.95746732 4.8061695
2.8698313 -0.93291736 4.8065968
2.9014263 -0.93004823 4.8071132
2.1807518 -0.91702837 4.8070331
3.2648714 -0.91574025 4.8027248
1.962157 -0.89333498 4.8010449
2.563292 -0.89948678 4.8050175
3.0156937 -0.88018364 4.8041773
1.9953426 -0.8617543 4.8003626
2.0333261 -0.86845601 4.8014922
2.5958495 -0.86559129 4.804986
3.216423 -0.85987008 4.8051701
3.7342 -0.84658086 4.8015733
1.6697688 -0.8319031 4.8089652
3.5272117 -0.83904397 4.8047595
2.133558 -0.82589293 4.8048549
2.1501508 -0.82983899 4.8040152
1.8660142 -0.812832 4.8040862
1.9286053 -0.81812036 4.8064256
2.4414651 -0.81714678 4.8030534
2.4629488 -0.81418765 4.8063569
3.5257382 -0.8124578 4.8078165
3.2660108 -0.80291474 4.8026714
1.9987662 -0.79688632 4.8068399
2.1466203 -0.79687637 4.8047652
2.5253861 -0.79254293 4.8024492
2.9965792 -0.79109663 4.8049412
3.409837 -0.79835069 4.8028502
3.6432564 -0.77386785 4.8080249
2.1018195 -0.76212883 4.8091078
1.8559579 -0.96000612 4.8194666
3.099432 -0.95961654 4.8121281
3.537847 -0.95763612 4.812499
3.6707866 -0.93422055 4.8166523
1.7705514 -0.92742193 4.819561
1.8509891 -0.90551889 4.8145075
2.2677398 -0.90719819 4.8152728
3.3288949 -0.89272463 4.8182673
2.9893785 -0.87998772 4.8156166
1.756433 -0.86166906 4.8119287
1.9118335 -0.86094552 4.8142214
2.9799998 -0.8563813 4.8192191
3.3302748 -0.8596853 4.8106122
3.5578089 -0.85613525 4.812634
3.5731978 -0.84785795 4.8127861
3.6200552 -0.83628947 4.8170881
1.9682913 -0.82719874 4.8164587
3.1768544 -0.82689357 4.8139858
3.0214717 -0.79991186 4.8198142
3.2102354 -0.96116781 4.8280773
3.3648381 -0.95949996 4.8243666
2.1241164 -0.93738103 4.8252282
2.692203 -0.91503882 4.8219628
2.9809611 -0.89962673 4.8244438
3.0033102 -0.89961815 4.8212566
3.4582334 -0.89807546 4.8260727
2.3379335 -0.88970578 4.8264594
3.6245053 -0.88689637 4.8298879
3.6312933 -0.88987082 4.8205175
3.1503375 -0.87285286 4.8286872
1.8376945 -0.8600418 4.8283753
2.4054284 -0.8564527 4.8256884
3.5553861 -0.85816944 4.8291655
3.5961998 -0.8595891 4.8228397
1.6592852 -0.82946086 4.8290453
2.0568252 -0.81491566 4.825654
2.1091819 -0.81340182 4.8287292
1.9303319 -0.79285717 4.8200121
2.7732224 -0.79990363 4.8288727
2.2551966 -0.7778914 4.8255987
2.3145981 -0.76109427 4.8298326
2.7649555 -0.76047063 4.8283339
2.5441563 -0.75743198 4.8248959
2.6557727 -0.93807578 4.8347306
3.4256706 -0.93387139 4.8391228
1.8562995 -0.92620063 4.8342032
2.1964574 -0.92760062 4.8318095
2.4169245 -0.9296701 4.8320427
2.758481 -0.91199565 4.8361979
3.2540264 -0.91556478 4.8385963
3.5322886 -0.91644144 4.8324957
1.9672647 -0.90055549 4.8357868
2.2793627 -0.90447956 4.8391695
3.2499056 -0.90126425 4.8352284
2.2116475 -0.89716399 4.8357553
2.9173999 -0.89566648 4.8329597
3.1703475 -0.88840663 4.8351035
3.2136986 -0.861256 4.8366966
3.5001993 -0.8410033 4.8330822
2.1774352 -0.83758366 4.8366165
3.2428274 -0.83417511 4.8363204
2.6737423 -0.82560372 4.8311167
3.3095045 -0.8155899 4.8326216
3.0319595 -0.80245185 4.8314362
2.0123484 -0.7925421 4.837472
2.799293 -0.79941612 4.8339291
2.915864 -0.79619849 4.830471
3.5594044 -0.79009461 4.8376517
2.785605 -0.78491431 4.8398108
3.2585428 -0.7748605 4.833528
1.974002 -0.76587498 4.8392024
2.9807074 -0.76183653 4.8373947
2.3812392 -0.95985419 4.8498321
2.9155054 -0.93211377 4.8421054
3.1779854 -0.93862391 4.8440533
2.0705216 -0.92699832 4.8444405
2.3311517 -0.90895355 4.8473148
2.7710888 -0.90802383 4.8434806
2.9881208 -0.90096366 4.8434677
1.9299949 -0.89114976 4.8485847
2.0333922 -0.89664412 4.8421087
2.0912695 -0.89225507 4.8450584
3.0852394 -0.89382493 4.8490453
2.2259593 -0.87679338 4.8482456
2.3635919 -0.8755455 4.8455892
3.0914764 -0.87238103 4.8432107
3.1763787 -0.87424672 4.8423653
3.0345674 -0.86135244 4.8494673
2.3530622 -0.83253896 4.8440924
2.7059102 -0.83813512 4.8459592
3.4618535 -0.83203125 4.8441973
2.2692215 -0.82699835 4.8413334
2.0735273 -0.81293631 4.8473206
2.0444002 -0.80736089 4.8419847
1.7224154 -0.79533964 4.8472171
1.9093125 -0.7995609 4.8454781
2.2310925 -0.78493762 4.8405313
2.2891407 -0.78397804 4.8468256
3.0000987 -0.78703749 4.8481121
2.5745537 -0.76569366 4.8484221
2.7123895 -0.96102285 4.8576164
3.0036724 -0.95607781 4.8590293
2.2921727 -0.93291879 4.8522234
1.9271728 -0.92928767 4.8572416
1.7559228 -0.89464211 4.854208
3.0568526 -0.89947724 4.8540316
2.2615955 -0.88393295 4.856977
2.6962051 -0.88673317 4.8502584
2.9343393 -0.88890517 4.852891
2.9756076 -0.88695717 4.8579984
3.2393649 -0.88436842 4.8504419
3.3489802 -0.87422609 4.8597984
2.0224421 -0.86588836 4.8509073
2.3146224 -0.86091828 4.8591561
2.4890401 -0.86035287 4.8574839
2.3613863 -0.85998464 4.8586755
2.5981915 -0.85651523 4.8513651
3.5034781 -0.84460503 4.8514566
2.830687 -0.83268619 4.8543253
2.9946718 -0.83375412 4.8589525
3.2251022 -0.83867848 4.8551378
3.220047 -0.82517892 4.8577347
1.7497369 -0.81270719 4.8514137
2.7814498 -0.79241514 4.8557444
3.2940972 -0.79366201 4.8538022
3.0271301 -0.78470933 4.8532758
3.0981464 -0.78859329 4.8525305
3.2095027 -0.78946972 4.850894
2.4271908 -0.95625532 4.865406
1.6807456 -0.93370509 4.8621492
3.1781814 -0.93351793 4.8618107
3.2090433 -0.93331236 4.8602104
2.3738139 -0.92641819 4.8696165
2.3952289 -0.92577767 4.8607054
2.4893267 -0.91493654 4.8642368
2.9114432 -0.91492081 4.8608522
2.9663906 -0.91055965 4.8605165
2.7151353 -0.9035365 4.8643079
2.8822906 -0.90207934 4.8697791
3.174094 -0.89683652 4.8604517
2.2084119 -0.88492805 4.8659258
3.1382668 -0.87629575 4.8609824
2.7172775 -0.86120486 4.8661742
3.5645864 -0.86079168 4.8601017
2.2115285 -0.83318335 4.8642712
2.9373701 -0.83058333 4.8652716
2.5732672 -0.82664454 4.8664465
1.8541393 -0.81501758 4.8678875
1.9708085 -0.8133148 4.8605905
2.201571 -0.80045962 4.8643551
2.5492492 -0.80841494 4.8698254
2.6695151 -0.80316895 4.8656883
3.2692759 -0.80204004 4.8630328
2.1814423 -0.78341281 4.8671341
2.6239407 -0.78704929 4.8678241
3.1518357 -0.74863362 4.8633513
1.8540671 -0.95608664 4.8719044
2.967824 -0.91199493 4.8799057
3.5353343 -0.91749805 4.8791933
3.5819216 -0.91176879 4.873466
3.2648671 -0.90900397 4.8712974
2.3592882 -0.89873415 4.8752213
2.7894821 -0.89962626 4.8779564
3.585259 -0.89272535 4.8717923
2.2010753 -0.88478982 4.87994
2.8525369 -0.86567736 4.8765173
2.1220813 -0.85735136 4.8763065
2.9571528 -0.85868359 4.8772249
2.7765687 -0.82735372 4.8723545
3.4159427 -0.82543385 4.8762088
3.1083848 -0.81558847 4.8746152
2.1871188 -0.80932462 4.8736343
3.2836819 -0.80092001 4.8794613
1.7639298 -0.79716706 4.8743234
3.1893504 -0.79639578 4.8773899
2.2120063 -0.96087849 4.8873072
2.9092343 -0.95985872 4.8803754
2.928287 -0.93316138 4.8847198
1.805015 -0.92805529 4.8894458
2.9403317 -0.92535126 4.8875122
3.2709866 -0.92637181 4.8829079
2.3312733 -0.91267002 4.8881321
2.5635123 -0.91426349 4.8834543
3.1584961 -0.90269423 4.8899384
3.2671552 -0.89644098 4.8847551
2.7221346 -0.88344949 4.8883357
3.4023442 -0.88118446 4.886867
1.8406173 -0.8564049 4.8879566
2.6682892 -0.85758758 4.8825336
2.8878164 -0.8599267 4.8891344
3.2114892 -0.85765582 4.8886495
2.7440374 -0.83346617 4.8818326
3.6752241 -0.83184624 4.8816133
2.0821078 -0.82526708 4.8842335
2.3394823 -0.82510877 4.8841066
2.5968704 -0.82511067 4.8841081
2.8542559 -0.82510924 4.8841071
3.1116433 -0.825109 4.8841071
3.3690321 -0.82510948 4.8841071
3.6263957 -0.8249507 4.8839808
2.0255771 -0.81467509 4.8841143
2.8238783 -0.81065768 4.886467
2.4519994 -0.79848266 4.8893852
2.5820787 -0.79990339 4.8822937
2.1361089 -0.78554559 4.8836336
2.557179 -0.78197533 4.885078
2.7074995 -0.78405547 4.8853955
3.0945032 -0.77718264 4.882421
2.0601056 -0.74964297 4.8816776
3.2017925 -0.93029976 4.8929892
2.6802657 -0.92598414 4.8950343
2.1081302 -0.91317093 4.8946342
1.7136261 -0.89533949 4.8985019
2.218348 -0.86099911 4.8958187
2.4560132 -0.830091 4.8904123
2.696192 -0.83278972 4.8977504
1.7883996 -0.82630843 4.8955693
2.8805852 -0.82628679 4.8918295
1.7156584 -0.8198638 4.8994961
2.2555342 -0.81398183 4.8907933
2.2810414 -0.8130399 4.8905568
3.441 -0.81217766 4.8990068
2.3132529 -0.80399919 4.8993721
3.0445166 -0.80928147 4.8972816
2.4212184 -0.7907868 4.8919349
2.5104299 -0.79823393 4.8952446
3.3314595 -0.79721189 4.8903437
2.9847589 -0.7848922 4.8961649
3.4904368 -0.78948331 4.8911152
1.6861807 -0.9999063 4.9016695
1.9237777 -0.9999063 4.9016695
2.1613758 -0.99990469 4.9016695
2.3989737 -0.99990511 4.9016695
2.6365716 -0.99990559 4.9016695
2.8741689 -0.99990547 4.9016695
3.1117661 -0.99990535 4.9016695
3.349365 -0.99990439 4.9016695
2.29636 -0.93226385 4.9077444
2.675951 -0.93280196 4.9078531
2.2101111 -0.91359901 4.9064145
2.2864575 -0.91493607 4.9065933
2.9687972 -0.91711891 4.9092827
2.1613758 -0.90009534 4.9016695
2.3989737 -0.90009493 4.9016695
2.5208631 -0.90288037 4.903748
2.6365716 -0.90009445 4.9016695
2.8741689 -0.90009457 4.9016695
3.1117661 -0.90009469 4.9016695
3.3487618 -0.90044749 4.9055548
3.586961 -0.90009409 4.9016695
1.7929199 -0.89333475 4.9056382
2.5839479 -0.89995337 4.9026413
3.2881672 -0.89382517 4.9057598
2.0965033 -0.88781708 4.9094367
2.6701822 -0.88903773 4.9078636
3.3063579 -0.88472712 4.9008641
1.9808817 -0.84604406 4.9023309
2.4909563 -0.83317387 4.9049377
1.6347877 -0.81885254 4.9099388
1.6965073 -0.81777406 4.9082174
3.2223287 -0.8179549 4.9044852
3.3710628 -0.81607318 4.9053726
1.7942928 -0.79411662 4.9028101
1.9219894 -0.79534024 4.9029922
2.5146403 -0.79880071 4.9045134
3.037513 -0.79228711 4.90904
2.4988594 -0.76046991 4.9026999
2.9917526 -0.7599926 4.9014869
2.1148338 -0.95712966 4.9153728
2.7215271 -0.93004799 4.9182968
3.5449624 -0.93355906 4.9133782
2.4231882 -0.88994217 4.9137149
2.4628675 -0.88329101 4.9151731
1.8414662 -0.87649494 4.9110241
3.2290401 -0.8479557 4.9180984
1.969403 -0.82983947 4.9157228
3.1913435 -0.82607877 4.9175181
1.6514649 -0.8150171 4.9102039
2.6582134 -0.81288743 4.914938
2.9072716 -0.81548905 4.916687
2.0940256 -0.80522233 4.9145994
2.1345584 -0.78784341 4.9155316
2.959089 -0.7729556 4.9190269
2.8306351 -0.76561105 4.9197874
2.6627846 -0.95729995 4.9214354
3.2076936 -0.95746899 4.9274621
2.3383574 -0.93773091 4.9265528
2.9900353 -0.92554653 4.9207263
1.8511879 -0.91302609 4.9297767
2.392096 -0.91379905 4.9246101
2.9713387 -0.91207898 4.9202332
3.1771669 -0.91199565 4.9236145
2.0958931 -0.90728402 4.9247513
2.4869459 -0.89804971 4.9242878
2.5752099 -0.89840579 4.9259844
2.7498007 -0.8994863 4.923717
2.491154 -0.88185775 4.9207635
1.7168658 -0.86094588 4.9255967
1.8566231 -0.83737302 4.9288082
2.2353911 -0.83288014 4.9282684
2.323508 -0.82589269 4.9222507
2.5360401 -0.81463939 4.9205489
3.0322633 -0.81552076 4.9279094
2.8717179 -0.80126911 4.9217854
2.9731464 -0.78290004 4.9210615
3.3101225 -0.74865723 4.9298139
2.0555606 -0.96000528 4.9334893
3.0161958 -0.96116877 4.9389229
2.4212093 -0.93257737 4.9311852
2.8657541 -0.9384191 4.9351149
1.8424788 -0.91287875 4.9302034
2.3950734 -0.91688234 4.9396372
2.1654675 -0.903669 4.9371505
3.4833312 -0.90098786 4.9338961
2.598002 -0.89962626 4.9314709
2.7517164 -0.89566696 4.9353595
2.7439628 -0.87001395 4.9371648
3.0160592 -0.87001395 4.9371648
3.2881563 -0.87001348 4.9371657
3.5602551 -0.87001348 4.9371657
2.199785 -0.86991072 4.9373636
2.2223551 -0.86026382 4.9322405
2.4718838 -0.86991096 4.9373636
2.8349547 -0.86875224 4.9322863
3.3388805 -0.85613668 4.9376974
2.3903072 -0.83792925 4.9373713
2.3803377 -0.82765222 4.9300432
2.4885216 -0.81304002 4.933876
2.6543009 -0.81714606 4.9345922
1.962881 -0.80481499 4.9325004
2.0517669 -0.79141569 4.9345117
2.3909359 -0.79990292 4.9357138
2.7505562 -0.79624104 4.9325123
2.8069015 -0.7951442 4.9369521
2.7698483 -0.76893222 4.9393167
3.2894211 -0.93170768 4.9424906
3.3837757 -0.93882704 4.9435019
2.2360551 -0.92967057 4.9438267
2.8677416 -0.9268384 4.941184
3.3031776 -0.92510438 4.9466963
2.0835772 -0.91483402 4.9488683
2.8850839 -0.89508009 4.9445043
2.4367945 -0.87419587 4.9433355
2.0367494 -0.8601979 4.9420481
3.0202098 -0.86125731 4.9472265
3.109221 -0.865762 4.948051
2.7616935 -0.85637987 4.9439263
2.9145761 -0.83847499 4.9457822
3.4375536 -0.83941495 4.9441051
2.8647749 -0.82560337 4.949182
3.5053699 -0.82571447 4.9434547
2.8124189 -0.81528801 4.949863
3.2999356 -0.81230283 4.9471917
3.4123492 -0.81089091 4.9419308
2.5239329 -0.80450344 4.9401469
3.226661 -0.78948402 4.9461899
2.1831923 -0.7783035 4.9490938
2.4254024 -0.77584743 4.9410405
2.1638832 -0.93221176 4.9547734
2.6594493 -0.93251872 4.9516864
2.0463872 -0.92619967 4.951683
2.6718504 -0.91441846 4.9541407
3.3372638 -0.9155674 4.9549799
2.0307977 -0.90813202 4.9542899
2.1518104 -0.90055621 4.9532394
2.6008558 -0.90802383 4.9518232
1.9135668 -0.89533997 4.9543815
2.1014678 -0.87815082 4.9578848
1.6154749 -0.85345179 4.9532709
2.1877425 -0.85645318 4.9500418
1.9773812 -0.83244419 4.9518027
3.0359745 -0.8331852 4.950964
3.2021465 -0.83243424 4.9542212
3.2357557 -0.83107066 4.9503298
2.6882944 -0.81485939 4.9508343
2.7061524 -0.81548858 4.9586792
1.8727114 -0.80736053 4.9512539
2.1215627 -0.79534024 4.9587684
2.9855537 -0.79941672 4.9524708
3.1838551 -0.78484833 4.9526348
3.4100835 -0.77398229 4.9566607
2.3205452 -0.74955767 4.9545174
2.5178568 -0.96102476 4.9687443
3.6218834 -0.96220696 4.9627719
2.5813644 -0.95985276 4.9641533
1.7628808 -0.93665457 4.9677939
1.9803555 -0.93678784 4.9678488
2.0415647 -0.93331355 4.9607038
2.1978395 -0.93678808 4.9678488
2.4153237 -0.93678832 4.9678493
2.632808 -0.9367888 4.9678493
2.6416326 -0.93266577 4.9613862
2.8502932 -0.93678761 4.9678488
3.0677783 -0.93678641 4.9678478
3.2852626 -0.93678665 4.9678483
1.8159567 -0.90444219 4.9699998
2.6757119 -0.9097631 4.9659209
2.1723664 -0.89892554 4.9629002
1.6334802 -0.88338274 4.967792
2.2013659 -0.88974857 4.969667
2.4060283 -0.8891722 4.9628344
2.9441798 -0.88297302 4.9612989
3.3820992 -0.86881435 4.962554
3.4042435 -0.86241776 4.961308
3.3315439 -0.84779394 4.9624147
2.5764284 -0.832937 4.9632545
2.0789952 -0.8164736 4.9652052
2.9613709 -0.80377388 4.9661431
1.865993 -0.79682279 4.9611931
2.8923328 -0.79997313 4.9696226
3.2935655 -0.79228878 4.9625025
2.3939228 -0.77478403 4.9648404
2.1873746 -0.76917589 4.9680333
2.5351808 -0.76115125 4.966393
3.3904002 -0.96210581 4.9745684
3.3638263 -0.95589983 4.9780831
2.5864613 -0.9256475 4.9788008
2.0501628 -0.91287947 4.9735661
3.3005574 -0.91111112 4.9772964
3.0962229 -0.90891886 4.9785233
3.5268917 -0.90195376 4.9772286
1.9877396 -0.89104116 4.9742866
2.8715525 -0.89087307 4.9767685
2.5232983 -0.86120373 4.9769855
3.172327 -0.86217892 4.9730701
1.6752368 -0.85018766 4.9723868
2.5609241 -0.85998511 4.9726615
3.4431763 -0.85548788 4.9752402
3.4209747 -0.8460508 4.9783201
1.7167405 -0.83214355 4.9755955
1.9626491 -0.83342874 4.9721131
2.7585807 -0.83046246 4.9758391
2.3390393 -0.8140856 4.9741569
2.6960387 -0.8131423 4.9771137
3.0848522 -0.81581652 4.9787483
1.8734038 -0.80377829 4.9781981
2.3792729 -0.80833018 4.9781122
2.2327645 -0.76047039 4.9770684
3.1578093 -0.96216142 4.9863958
2.7846646 -0.95607829 4.9841371
2.947576 -0.91514015 4.9832344
3.4701183 -0.91619968 4.9807625
2.4065213 -0.89962602 4.9849854
2.9261994 -0.88884377 4.980042
2.9392428 -0.86209524 4.9849176
1.8042452 -0.83841002 4.9832377
1.9882929 -0.82810247 4.9872088
3.4570627 -0.82658911 4.9826603
1.8859192 -0.80870169 4.9807134
2.3858747 -0.80045938 4.9816527
2.467037 -0.80036187 4.9814944
2.1997936 -0.79990315 4.9891334
2.8651764 -0.79955727 4.983469
2.9059269 -0.79106301 4.9824958
2.0732937 -0.78357399 4.9875102
3.2405033 -0.78481555 4.9892669
3.2947829 -0.77337396 4.9896727
1.7929767 -0.96018451 4.9941082
2.0169783 -0.96087778 4.9987168
2.9240439 -0.96205986 4.9983091
2.2088065 -0.95625412 4.9901586
3.1098812 -0.9598605 4.9949961
2.4687076 -0.92730117 4.9988503
1.8807076 -0.9148345 4.9912262
3.1359503 -0.91556787 4.9970131
1.9880239 -0.90540582 4.999732
1.9002836 -0.89664459 4.9966841
2.735445 -0.89772779 4.994771
2.132987 -0.87554526 4.9923549
1.8876333 -0.86228192 4.9912515
2.5359781 -0.86085957 4.9961925
2.7050114 -0.86200958 4.9968228
2.0211942 -0.85999286 4.9925241
2.3349268 -0.85735184 4.9978943
3.4906902 -0.85641348 4.9987512
3.3908949 -0.84174883 4.9949794
1.6485269 -0.83248943 4.9970694
2.1213834 -0.83213741 4.9997244
1.9842234 -0.81340146 4.9978051
2.5323696 -0.81005442 4.9919734
3.4064138 -0.8029145 4.9926438
2.4146943 -0.79385948 4.9980359
2.8920636 -0.78405571 4.9994617
3.0765145 -0.78124726 4.9991946
3.0866859 -0.76561081 4.9913468
2.0515604 -0.96007085 5.0066595
3.022882 -0.93042278 5.0036321
2.0947278 -0.92473841 5.0042124
2.3536935 -0.92473841 5.0042124
2.6126592 -0.92473888 5.0042119
2.8716063 -0.92489791 5.0040841
3.1315842 -0.9251247 5.0052109
3.3895376 -0.92489839 5.0040836
3.6485007 -0.92489815 5.0040841
3.1318257 -0.91556406 5.0039392
1.9352419 -0.89972359 5.0070133
2.4932489 -0.89368546 5.0057817
2.9275658 -0.89947772 5.0041699
2.9072371 -0.88345009 5.0027375
1.7723647 -0.87297541 5.0099621
2.3020909 -0.87050247 5.0074291
3.115417 -0.87410831 5.0086851
3.2499261 -0.87243134 5.0094342
1.9556067 -0.86026406 5.0067897
2.0238771 -0.86099809 5.0069108
2.4696226 -0.86192632 5.0087891
3.4442108 -0.86633837 5.0002823
2.2802832 -0.85989749 5.005065
2.8805442 -0.85758781 5.0037842
3.0878749 -0.85992622 5.0034189
3.4231591 -0.85765344 5.0095654
2.2761998 -0.83021355 5.001472
3.37252 -0.83357435 5.0036693
2.5050323 -0.81548858 5.0006704
3.1588216 -0.81148058 5.0029359
3.3532455 -0.81644583 5.0072188
2.8761206 -0.80928147 5.0044551
2.0712507 -0.79687566 5.0020881
2.545557 -0.79045248 5.0004201
2.3975015 -0.7834121 5.0046411
2.9628837 -0.78948259 5.0012617
3.1431596 -0.78032881 5.0091972
1.7315755 -0.96015787 5.0167112
2.6891239 -0.96195614 5.0102811
3.3184597 -0.96115983 5.0198007
2.311487 -0.95995724 5.0192757
2.0180881 -0.93738055 5.0191994
2.983521 -0.93291736 5.0145841
2.2578828 -0.91277528 5.0168457
3.2191794 -0.91573954 5.0119047
2.113508 -0.89533925 5.0102592
2.9297028 -0.89961791 5.0139627
2.1418774 -0.88930452 5.0178061
2.1429501 -0.86845613 5.0159016
3.3658531 -0.86567688 5.019978
2.5407856 -0.85997087 5.0177031
1.7378459 -0.84020996 5.0184522
1.7539644 -0.83718324 5.0191774
1.9703344 -0.83718324 5.0191779
2.1867051 -0.83718276 5.0191784
2.403075 -0.83718276 5.0191784
2.6194451 -0.83718252 5.0191784
2.8358157 -0.83718228 5.0191784
3.0521867 -0.83718348 5.0191774
3.2685575 -0.837183 5.0191779
1.9069556 -0.82353061 5.010776
1.977281 -0.82630891 5.0123038
3.3539281 -0.82781112 5.0148211
1.7986557 -0.80148107 5.0102272
1.8690075 -0.80264902 5.0173779
2.3210881 -0.79527479 5.0146484
3.5496175 -0.7922883 5.0159626
2.3791337 -0.78486776 5.0126591
1.7137243 -0.77329564 5.0164452
2.4530411 -0.96185362 5.0223122
2.5416276 -0.93004847 5.0294814
2.5506887 -0.93807602 5.0269747
2.106874 -0.91267097 5.0268178
2.7882955 -0.91491985 5.0274763
2.4174798 -0.90447944 5.0260482
2.2466559 -0.89117205 5.0281739
2.0073481 -0.8836748 5.0228639
3.0507967 -0.88018292 5.0218682
2.6310186 -0.87617898 5.0294123
1.7137573 -0.86025488 5.0250044
2.2330694 -0.86184037 5.020813
2.9424319 -0.86835957 5.027792
2.0718813 -0.83772099 5.0296006
1.788656 -0.82983971 5.0274305
2.9034824 -0.81304002 5.0205154
1.6472677 -0.80282497 5.0221701
1.8503016 -0.80282474 5.0221705
2.0533366 -0.80282521 5.0221696
2.2563579 -0.80274928 5.0222692
2.4593909 -0.80274928 5.0222692
2.6624234 -0.80274963 5.0222683
2.8654413 -0.80267346 5.0223684
3.0684571 -0.80259669 5.022469
3.2714717 -0.80252039 5.0225692
2.8917558 -0.7980125 5.0241914
1.7425889 -0.78669679 5.0294724
2.37486 -0.7705487 5.0272188
2.7129743 -0.77665532 5.02036
1.9331198 -0.76706779 5.0237885
2.1956127 -0.76995039 5.024086
2.4671862 -0.76995039 5.024086
2.7387469 -0.76984882 5.0238872
3.0103207 -0.76984882 5.0238872
3.2818949 -0.76984787 5.0238853
3.5534692 -0.7698493 5.0238876
2.5809774 -0.74947232 5.0273542
2.2157869 -0.96174979 5.0344024
2.3283496 -0.95712978 5.037344
2.5727673 -0.95984477 5.0319567
3.0738304 -0.93862534 5.0345993
1.6778378 -0.91483474 5.0335836
2.9346373 -0.9155674 5.0390444
1.9240477 -0.90737057 5.0342293
3.1312063 -0.90096301 5.0370717
2.136158 -0.8971647 5.0333929
2.2150419 -0.89962626 5.0384994
2.5859752 -0.89562297 5.0376668
1.7541234 -0.88612652 5.0327587
3.5201156 -0.88472807 5.0369053
3.2564909 -0.87289411 5.0359564
1.9953424 -0.86175495 5.032896
2.802578 -0.85987562 5.0303755
3.5519066 -0.84145331 5.0340452
2.6013498 -0.83813632 5.0372443
2.513459 -0.82589388 5.0396461
3.4338284 -0.81795394 5.0351982
2.0897031 -0.7995739 5.0359073
2.2854342 -0.79074615 5.0343223
2.5853045 -0.79624069 5.0346441
1.9773518 -0.96164519 5.0465565
2.2551627 -0.96000612 5.0475125
2.822156 -0.96116757 5.049768
2.8354125 -0.95972949 5.0447054
2.8757043 -0.95730042 5.0430651
3.420023 -0.95746815 5.0487556
1.7014133 -0.92674708 5.041687
3.1818039 -0.91711867 5.0409288
3.4869287 -0.91644025 5.0401549
2.936305 -0.89948726 5.042417
3.2521207 -0.88840747 5.0491843
3.4395962 -0.88758874 5.047842
3.0772419 -0.87998736 5.0456448
3.2972245 -0.87629575 5.0455747
1.7564332 -0.86166811 5.0450397
3.0657372 -0.859779 5.0431147
3.1214623 -0.83867705 5.0447416
3.0531068 -0.82689428 5.0403748
2.3039036 -0.81558919 5.0425816
3.3204637 -0.80124044 5.0477695
3.4539189 -0.80159461 5.0413265
2.0086498 -0.79990292 5.0425539
2.0548565 -0.79956102 5.0424061
2.3211546 -0.79842079 5.0414925
2.2911754 -0.77789122 5.0486989
3.0150824 -0.76845884 5.0478625
3.099432 -0.9596163 5.057518
3.0303004 -0.9321146 5.0521154
2.0551872 -0.9296701 5.0556087
2.0739136 -0.9276011 5.055994
2.4394059 -0.91426492 5.0513797
2.7454288 -0.91208065 5.0598516
2.8544629 -0.90353698 5.0528259
2.3495455 -0.88478971 5.0523524
2.6792603 -0.88329196 5.0528917
3.4582272 -0.87027991 5.0556917
2.2357683 -0.86019731 5.0557375
2.82672 -0.86125559 5.0577583
3.3302746 -0.85968423 5.0559206
3.5828078 -0.85729718 5.0523396
3.6998653 -0.85606289 5.0569334
3.4654381 -0.84635794 5.0533466
3.6278434 -0.84255445 5.0572138
2.467232 -0.83253968 5.0529585
3.2428269 -0.83417583 5.0594907
2.4340012 -0.812886 5.0535078
3.4109299 -0.80204004 5.054698
2.2550995 -0.78397775 5.057919
2.6991055 -0.78948402 5.0563374
2.9669468 -0.78703767 5.0536819
1.7934333 -0.93356013 5.0681376
2.0631299 -0.93200684 5.0645432
2.405952 -0.93277073 5.0601983
3.3221872 -0.93331438 5.0671968
3.4256701 -0.93387043 5.062427
1.7705514 -0.92742169 5.0653424
2.2364731 -0.92619991 5.0691628
2.4655683 -0.91277456 5.0602078
2.4306722 -0.90810895 5.0602398
1.7727649 -0.89114952 5.061326
2.0912697 -0.89225519 5.068644
2.3134005 -0.89540589 5.0662422
2.2274408 -0.88393342 5.0687823
2.7791295 -0.8867346 5.0673504
2.9423492 -0.88695753 5.0642428
1.7411463 -0.86404455 5.0651255
2.5433424 -0.85620952 5.0685554
3.1199965 -0.85630846 5.0628409
3.5265718 -0.85899436 5.0619359
2.9448586 -0.83268636 5.0631943
3.0579112 -0.83095026 5.0603118
1.9682918 -0.82719934 5.0620766
3.0558078 -0.8256042 5.0672455
1.7885766 -0.81353796 5.0692654
2.8670998 -0.81729126 5.0662541
3.1109636 -0.81303966 5.0638356
3.2499084 -0.81607342 5.0692997
1.7010782 -0.80727482 5.0605984
3.2110934 -0.80091977 5.0695019
3.5741086 -0.80975676 5.0616708
2.0123482 -0.79254216 5.0606985
3.0493011 -0.789469 5.0676537
3.1797781 -0.78859282 5.0662432
3.2531111 -0.77718335 5.0666089
3.3427124 -0.76569533 5.0631075
2.3233235 -0.96102405 5.0798712
2.7814896 -0.95985347 5.0784755
2.0851059 -0.91370225 5.0756989
2.6093998 -0.91673487 5.0722446
2.3363562 -0.90055692 5.0706921
2.3804469 -0.90895426 5.0729899
1.7540028 -0.89871573 5.0736418
2.3557742 -0.89804971 5.0766125
1.659579 -0.88105124 5.0792279
2.2620642 -0.87679303 5.0721416
1.8752615 -0.84095645 5.0734334
2.3246055 -0.83318377 5.071137
1.9237856 -0.81331462 5.0758677
1.8070633 -0.80592835 5.0729761
3.0849628 -0.80245149 5.0740943
2.5206602 -0.79527479 5.0704241
3.171813 -0.79941648 5.0710135
1.9744194 -0.77137923 5.0773726
3.0693841 -0.74871874 5.0788736
3.1781819 -0.93351841 5.0861969
3.321012 -0.93067169 5.0880127
2.7333331 -0.91566944 5.0811577
3.0148253 -0.91044313 5.0827394
2.9276242 -0.90891862 5.0858254
3.2990546 -0.90269423 5.080122
3.3034198 -0.90126425 5.0802231
3.3558741 -0.90098786 5.0819068
2.5055666 -0.89130366 5.0820594
2.2926409 -0.88501287 5.0860367
2.3293188 -0.86120462 5.0877962
2.7604604 -0.85998374 5.0866475
2.7754707 -0.85885906 5.0875387
2.0275221 -0.84842277 5.0895925
2.5797262 -0.83058381 5.086307
2.9946713 -0.83375496 5.0832033
2.2692215 -0.82699859 5.0882616
2.1027827 -0.81558967 5.0845728
3.0742159 -0.81230378 5.0866947
2.2092459 -0.80833089 5.0863218
3.2316329 -0.80127835 5.0865865
2.7068369 -0.78696632 5.0844536
2.1951754 -0.77584839 5.0875659
3.1166229 -0.77293205 5.0840602
2.0131481 -0.76582873 5.0830631
3.0212972 -0.76183701 5.0890827
2.5022237 -0.75743198 5.0849214
2.0705218 -0.92699796 5.0915318
2.7775674 -0.92577839 5.0970039
3.3926356 -0.91148221 5.0933352
3.6297092 -0.91176951 5.0922413
1.7488892 -0.9016037 5.0983772
3.2754576 -0.90079927 5.0997729
2.0235369 -0.89956284 5.0919151
2.7283337 -0.89995325 5.0980034
3.2671554 -0.89644122 5.0999823
2.0029011 -0.88785332 5.0927801
2.0619199 -0.86588883 5.0957208
3.6224883 -0.865592 5.0919061
2.6534657 -0.82735372 5.0975633
3.6239994 -0.82499188 5.0935578
2.2931445 -0.81661999 5.0977049
2.9101801 -0.81552005 5.0930958
2.2335844 -0.80727345 5.0993786
2.5701783 -0.80045915 5.0989504
1.8175066 -0.79990339 5.095973
2.4360111 -0.79823345 5.0900764
3.1893497 -0.79639614 5.0922842
1.9379815 -0.78783298 5.0953469
2.0412929 -0.78780872 5.0982151
3.12379 -0.78290021 5.0959978
3.2585406 -0.77485931 5.093739
2.5656559 -0.95607805 5.1092463
3.1441889 -0.9558984 5.1035514
1.9866929 -0.92775464 5.1074877
2.0296838 -0.91649312 5.103838
2.6732912 -0.9126699 5.1034875
1.6496006 -0.90273905 5.1009679
1.8529249 -0.90273929 5.1009684
2.0562503 -0.90273881 5.1009674
2.2595642 -0.90281677 5.101068
2.462888 -0.90281677 5.101068
2.6662133 -0.90281606 5.1010671
2.8695221 -0.90289354 5.1011667
3.0728302 -0.90297079 5.1012659
3.2761521 -0.90297127 5.1012669
1.6236055 -0.87167031 5.1079512
3.1763797 -0.87424624 5.1030684
3.0751221 -0.86140299 5.1021628
1.6176909 -0.83861279 5.1093783
2.7440376 -0.83346593 5.1071739
2.8098118 -0.83279073 5.1056113
2.2088623 -0.81398153 5.1044645
2.8723619 -0.81065577 5.1084218
3.3184435 -0.8130399 5.1071553
2.7222106 -0.80329448 5.1063094
1.8045851 -0.78690886 5.1011581
2.2200642 -0.78554547 5.1034312
3.1767998 -0.77398276 5.1051321
2.7557671 -0.76120734 5.1029506
2.8413961 -0.74938661 5.1001844
1.8219481 -0.96087778 5.1101279
1.9904237 -0.95625436 5.1149096
2.2328033 -0.93772948 5.1196556
2.4111557 -0.93226457 5.1177549
2.8439419 -0.9304235 5.1142235
2.928287 -0.93316162 5.1101961
3.657567 -0.93355942 5.119381
2.3738139 -0.92641819 5.1180325
3.1465034 -0.92637157 5.110641
2.0611596 -0.91328406 5.1101108
2.9353502 -0.9020797 5.1126938
3.4152148 -0.9098804 5.1110706
3.1181867 -0.89683652 5.1164017
2.0648029 -0.88979173 5.112874
3.0923438 -0.88344949 5.1171374
1.8294069 -0.86099857 5.1180019
1.9996942 -0.85728317 5.1139755
2.5477719 -0.85735244 5.119483
2.5560844 -0.85651523 5.112473
3.2879333 -0.85992557 5.1177025
3.0898845 -0.84773064 5.1120424
2.0964208 -0.83021402 5.1125813
2.5732672 -0.82664454 5.1146955
1.9944277 -0.81353784 5.1122456
2.5652668 -0.81485939 5.1172967
2.707674 -0.80936515 5.1115561
3.0146456 -0.8012684 5.1151724
1.7331297 -0.79682314 5.1154814
1.9537127 -0.79184365 5.1197538
2.7632749 -0.79997373 5.1194906
2.4352841 -0.78935194 5.111239
2.6435926 -0.78197533 5.1113124
3.0766261 -0.78405535 5.1135287
2.8105273 -0.75982237 5.1112752
3.0256224 -0.74863434 5.1102133
2.761137 -0.93841958 5.1265059
2.5320115 -0.91556787 5.1231089
1.6936175 -0.90985537 5.1211891
2.3043637 -0.89873415 5.1266737
2.5006728 -0.89840603 5.1211257
2.5133381 -0.8954066 5.1221209
2.2643852 -0.88994265 5.1285825
3.0928011 -0.85758877 5.1250372
1.7505941 -0.83750963 5.1226606
2.2852814 -0.8379283 5.1295094
2.166163 -0.82630891 5.1290398
1.9016508 -0.8156898 5.1264849
1.9810443 -0.80148029 5.126307
2.6620133 -0.80461717 5.1267791
1.7134688 -0.79970777 5.1260705
2.7202301 -0.79527456 5.1262002
3.4538789 -0.78492117 5.1252589
1.6861807 -0.9999063 5.139267
1.9237777 -0.9999063 5.139267
2.1613758 -0.99990469 5.139267
2.3989737 -0.99990511 5.139267
2.6365716 -0.99990559 5.139267
2.8741689 -0.99990547 5.139267
3.1117661 -0.99990535 5.139267
1.9306588 -0.96015692 5.1304374
3.1249087 -0.96115887 5.1303663
2.6759505 -0.93280149 5.134429
3.280077 -0.93882751 5.1332121
2.3454757 -0.91391218 5.1384759
2.1613758 -0.90009534 5.139267
2.3989737 -0.90009493 5.139267
2.6365716 -0.90009445 5.139267
2.8741689 -0.90009457 5.139267
3.1117661 -0.90009469 5.139267
3.2484622 -0.90103769 5.1354361
3.349365 -0.90009564 5.139267
3.586961 -0.90009409 5.139267
2.4202318 -0.89557958 5.1399765
2.7644856 -0.89156377 5.1357775
3.0951359 -0.88297349 5.1366
1.9023798 -0.87554502 5.139122
2.5986056 -0.87419528 5.1312428
1.9122605 -0.86025351 5.1384001
2.7573371 -0.86080134 5.1332302
3.128613 -0.86130899 5.138123
1.7901157 -0.85394263 5.1397676
3.4540739 -0.85592717 5.1374254
1.8917475 -0.84450233 5.1308775
2.4909558 -0.83317465 5.1313772
2.8105302 -0.83834076 5.1362357
1.6078686 -0.82996368 5.1390886
2.4897151 -0.81463856 5.1326351
3.1459982 -0.81625199 5.1311941
3.1967797 -0.81013238 5.1365252
2.3653724 -0.80399835 5.1379852
3.043144 -0.80127811 5.1392651
2.4199948 -0.79628301 5.1366868
3.5631609 -0.78833365 5.1361394
3.5987439 -0.76577783 5.1348658
2.3617287 -0.93004823 5.1406651
2.6802654 -0.92598462 5.1447859
2.8809774 -0.9126699 5.1468501
3.3488503 -0.91620064 5.144846
1.7521499 -0.90737057 5.143631
2.5734768 -0.90288037 5.144619
1.8320568 -0.89956284 5.1454287
1.7741892 -0.88654834 5.1404548
1.9349878 -0.88612652 5.1445389
2.5777252 -0.88185835 5.1474123
3.5036764 -0.88870585 5.1440845
2.9445746 -0.86875212 5.1466866
1.648315 -0.84524208 5.1494775
3.3264866 -0.83901119 5.1428242
2.880585 -0.82628632 5.1414146
2.2150531 -0.81408608 5.1419158
1.6263638 -0.79990292 5.149394
3.2756133 -0.79721069 5.146008
1.9229356 -0.78669649 5.1409335
2.6135607 -0.78341305 5.1421504
1.9920577 -0.95712858 5.1538224
2.5418639 -0.95713061 5.1593142
2.4212096 -0.93257761 5.1588736
1.8904301 -0.92674589 5.158505
1.7015542 -0.90642893 5.1575952
1.767267 -0.89670825 5.1513181
2.3181658 -0.89904588 5.1599455
2.7804725 -0.89087284 5.1549082
2.7981942 -0.89941573 5.1542482
2.8817458 -0.87410808 5.157402
1.79298 -0.84938866 5.152422
1.8873763 -0.83188307 5.1569471
2.2353916 -0.83287954 5.1558185
3.1490514 -0.83318418 5.1578288
2.2578738 -0.8276515 5.1540818
2.703475 -0.82602262 5.1569901
2.2003121 -0.81364012 5.1551433
3.1005449 -0.80377364 5.1544533
2.4597764 -0.79880095 5.1556888
2.8069036 -0.79514289 5.1545544
2.5552661 -0.77486056 5.1524615
2.8788385 -0.76889169 5.1528573
2.4547658 -0.96000516 5.1615357
2.6281157 -0.96116805 5.1606135
