# .PCD v0.7 - Point Cloud Data file format
VERSION 0.7
FIELDS x y z
SIZE 4 4 4
TYPE F F F
COUNT 1 1 1
WIDTH 1432
HEIGHT 1
VIEWPOINT 0 0 0 1 0 0 0
POINTS 1432
DATA ascii
-1.6467882 -0.89549947 -5.8524981
-1.4807842 -0.89459252 -5.8598533
-1.2847713 -0.89459252 -5.8598533
-1.0887594 -0.89459181 -5.8598514
-0.89274728 -0.89459229 -5.8598523
-0.69673407 -0.89459229 -5.8598523
-0.60403073 -0.89821935 -5.8560548
-0.50072551 -0.89455068 -5.8597465
-0.30471519 -0.8945092 -5.8596392
-0.10870317 -0.89446771 -5.8595328
0.087310523 -0.89442635 -5.8594255
0.28332791 -0.89434338 -5.8592138
0.47934243 -0.89442635 -5.8594265
0.67535043 -0.89463401 -5.8599601
0.87136066 -0.89463377 -5.8599596
1.0673882 -0.89446747 -5.8595324
1.1708022 -0.89802647 -5.8557658
1.2634079 -0.89442635 -5.8594255
1.4594235 -0.89442635 -5.859426
1.6554527 -0.89434266 -5.8592119
1.8514783 -0.89430141 -5.8591061
2.047507 -0.89426064 -5.8590012
2.2135375 -0.89562511 -5.8523812
2.2435255 -0.89426017 -5.8589997
2.4395351 -0.89430165 -5.859107
2.6355097 -0.89446771 -5.8595333
2.7956235 -0.89160204 -5.8511157
2.8315125 -0.8945092 -5.8596401
3.0275123 -0.89455068 -5.8597455
3.2235119 -0.89459276 -5.8598547
-2.5494921 -0.88497424 -5.8513689
-2.4819851 -0.88758069 -5.85776
-1.5186288 -0.88624334 -5.8546596
-0.96975446 -0.88759542 -5.8501925
1.5359986 -0.88733405 -5.8502922
2.0854039 -0.88617253 -5.8545976
3.0487981 -0.88751268 -5.8574319
-2.938724 -0.87825018 -5.8556032
3.0809474 -0.87381887 -5.853282
3.3313172 -0.87369871 -5.8567028
-2.9214826 -0.86158663 -5.8540535
-0.16951585 -0.86035538 -5.8576951
0.73616958 -0.86035699 -5.8576946
0.92532545 -0.86721027 -5.857182
-2.1689816 -0.85407418 -5.8589401
0.40495226 -0.8568573 -5.8539205
2.7358367 -0.85402119 -5.8590097
-3.4690659 -0.84254742 -5.8545241
0.28332824 -0.84337354 -5.8596287
-3.3237925 -0.83232677 -5.8579187
-3.1777143 -0.83879435 -5.8599701
-2.6685054 -0.83136117 -5.8508749
-1.4398816 -0.83091408 -5.8571162
2.0066137 -0.83077216 -5.8570814
-2.7055533 -0.82522249 -5.8554792
-2.625339 -0.82487321 -5.8523726
-0.54569542 -0.82909155 -5.8520041
-0.21369964 -0.82779551 -5.8547897
0.78073418 -0.82838941 -5.854929
1.1123949 -0.82896614 -5.8520498
3.1919925 -0.82487273 -5.8523726
3.2720013 -0.82489824 -5.8553123
-3.3345551 -0.81544697 -5.8550663
-2.3834074 -0.8147161 -5.8505816
-0.86214042 -0.81067073 -5.8537579
1.4288999 -0.81055403 -5.8537498
2.9500628 -0.81471562 -5.8505807
-2.2574072 -0.80926085 -5.8585668
-1.8141634 -0.80668718 -5.8519425
-1.1380695 -0.80551916 -5.8551722
-0.95568508 -0.80678892 -5.8516912
1.0071236 -0.80356336 -5.8581386
1.5223393 -0.80678892 -5.8516917
1.7049432 -0.80527335 -5.855051
2.3806105 -0.80692756 -5.8520613
2.8240612 -0.80925989 -5.8585682
-3.342685 -0.79911542 -5.8511634
-0.80863321 -0.79782033 -5.8585539
1.3754082 -0.79801059 -5.8582644
-2.9378347 -0.78510046 -5.8528662
-3.5224895 -0.76043451 -5.8597636
-3.3790007 -0.9614619 -5.8415771
-3.3104138 -0.96101785 -5.8485169
-2.468843 -0.95622039 -5.8466425
-1.9066874 -0.95621669 -5.8430943
2.4733272 -0.9560436 -5.8431797
-3.1943798 -0.93687272 -5.8410516
-2.9770222 -0.93687415 -5.8410525
-2.7596657 -0.93687415 -5.8410525
-2.5423081 -0.93687367 -5.8410521
-2.3249526 -0.93687415 -5.8410525
-2.1075959 -0.93687415 -5.8410525
-1.8902521 -0.93673873 -5.8410015
-1.6728928 -0.93673921 -5.8410015
-1.4555354 -0.93673873 -5.8410015
-1.238178 -0.93673825 -5.8410015
-1.0208197 -0.93673921 -5.841002
-0.8034572 -0.93687296 -5.8410521
-0.58609968 -0.93687272 -5.8410516
0.71804285 -0.9367404 -5.8410025
0.93540019 -0.93673992 -5.8410025
1.1527629 -0.93660569 -5.8409529
1.3701231 -0.93660593 -5.8409529
1.5874805 -0.93660545 -5.8409529
1.8048406 -0.93660569 -5.8409529
2.0222075 -0.93647146 -5.8409023
2.2395587 -0.93660474 -5.8409524
2.4569049 -0.93673968 -5.841002
2.6742623 -0.93673921 -5.8410015
2.8916206 -0.93673825 -5.8410015
3.108978 -0.93673968 -5.8410025
3.3263366 -0.93673897 -5.8410015
-1.3413814 -0.92641366 -5.8413563
-1.3124425 -0.92908096 -5.8499823
-0.25501764 -0.92762077 -5.8483639
0.82167172 -0.92762148 -5.848362
1.9079783 -0.92654252 -5.8414049
-2.1619759 -0.91338277 -5.8419542
-1.0613087 -0.91315186 -5.8444371
-0.8512485 -0.91403198 -5.8408241
0.54679751 -0.91974562 -5.8445797
1.4178748 -0.91413546 -5.8409014
1.6279135 -0.91299808 -5.8445702
2.7286289 -0.9133842 -5.8419552
-3.3910785 -0.90157998 -5.8489294
-2.960386 -0.90206337 -5.846839
-2.8916183 -0.90081596 -5.8484535
0.95669806 -0.90890968 -5.8428564
-3.3777173 -0.89008391 -5.8435006
-3.3207049 -0.89785314 -5.8417239
-3.0571618 -0.89846146 -5.8418498
-2.6966333 -0.89521134 -5.8465028
-1.8715297 -0.89701909 -5.8432808
-1.0749214 -0.89876413 -5.8401685
-0.97449064 -0.89381999 -5.8465343
1.6415751 -0.89876401 -5.8401694
2.4381831 -0.89701968 -5.8432817
-3.4309261 -0.88348341 -5.8463011
0.17150545 -0.88253075 -5.8494706
0.6028682 -0.88236505 -5.8401742
-2.9954588 -0.87206268 -5.84619
-2.9268959 -0.87231326 -5.8473372
-1.3100383 -0.87797552 -5.8483224
-0.90499437 -0.87487406 -5.8470154
1.4719483 -0.87479317 -5.8469362
1.8771913 -0.87769115 -5.8484311
-1.121971 -0.8618241 -5.8450279
-0.61700511 -0.86020148 -5.8429642
-0.45240372 -0.86003965 -5.8491902
1.0190573 -0.86003858 -5.8491902
1.18366 -0.86020088 -5.8429651
1.6877321 -0.86155689 -5.8457274
-1.8806007 -0.85433286 -5.8416386
2.4469197 -0.85408777 -5.8424292
-3.5257325 -0.84385931 -5.8402147
-2.3300352 -0.83031011 -5.84093
2.8966897 -0.83030963 -5.84093
-3.4444802 -0.82246733 -5.8420553
-3.17823 -0.82262921 -5.8421912
-2.9119575 -0.82262945 -5.8421917
-2.6457012 -0.82279396 -5.8423295
-2.37941 -0.8226285 -5.8421907
-2.1536813 -0.82624567 -5.8434157
-2.113152 -0.82279229 -5.8423285
-1.8468766 -0.82279277 -5.842329
-1.5805883 -0.82262921 -5.8421912
-1.3143156 -0.82262921 -5.8421912
-1.2213123 -0.82690561 -5.8410525
-1.0480402 -0.82262945 -5.8421917
0.54960173 -0.82262921 -5.8421912
0.81587738 -0.82279301 -5.842329
1.0821528 -0.82279348 -5.842329
1.3484285 -0.82279396 -5.84233
1.6147029 -0.82279301 -5.842329
1.7879655 -0.82690513 -5.841053
1.8809783 -0.82279181 -5.8423281
2.1472409 -0.82263017 -5.8421917
2.4135163 -0.82263064 -5.8421922
2.6797884 -0.82262921 -5.8421912
2.7203355 -0.82624531 -5.8434162
2.9460623 -0.82263064 -5.8421917
3.0157125 -0.82378554 -5.8446536
-2.8036275 -0.81345344 -5.8447556
-1.7691329 -0.81620479 -5.8401804
-1.4892387 -0.81413126 -5.8436055
-0.80164564 -0.81139398 -5.8476667
-0.51340985 -0.81525517 -5.8415093
-0.19486308 -0.81489968 -5.8423958
0.76154172 -0.81500173 -5.8423185
1.0800281 -0.81545639 -5.8413563
1.3683655 -0.81154919 -5.8478031
2.055831 -0.81392789 -5.84376
2.3358207 -0.81590486 -5.8404088
-3.1030116 -0.80996847 -5.846302
-2.757158 -0.80212569 -5.8494358
-2.4688029 -0.80817521 -5.8489919
-1.9020593 -0.80300248 -5.8409324
-1.7579181 -0.80833399 -5.840888
-1.0639327 -0.80274236 -5.8416004
1.6305866 -0.80274224 -5.8416004
2.3245718 -0.80833399 -5.840888
2.4684458 -0.80275226 -5.8409147
-3.3168108 -0.79619455 -5.8429055
-2.1488967 -0.79225445 -5.8418317
-0.77991629 -0.79481888 -5.8482533
1.3459918 -0.79520297 -5.8479061
2.7156758 -0.79217142 -5.8417993
-3.2143269 -0.7887187 -5.8419743
-2.151917 -0.78175408 -5.8409595
-2.0438187 -0.7881977 -5.8411489
-1.1862235 -0.78851092 -5.8477964
-1.0197561 -0.78731298 -5.8452311
-0.88858038 -0.7876569 -5.8405414
-0.6526531 -0.78587961 -5.8485537
1.2194881 -0.78655529 -5.8494644
1.4548248 -0.78791332 -5.8406391
1.5864098 -0.78731346 -5.8452311
1.7535486 -0.78836584 -5.8482847
2.6103222 -0.78813344 -5.841475
2.7181041 -0.78149581 -5.8410153
-1.7043229 -0.77851117 -5.8458352
-0.84953898 -0.77506661 -5.8498826
0.65998942 -0.7763254 -5.846138
1.4169376 -0.77526087 -5.8496842
2.2711182 -0.77828646 -5.8454947
-2.2611909 -0.75551248 -5.8492398
2.8293707 -0.75516599 -5.8470955
-2.0010612 -0.96073139 -5.8339467
0.032548517 -0.96004009 -5.8361802
2.5677156 -0.96072996 -5.8339458
-1.3413687 -0.9562099 -5.8395281
-0.77281451 -0.95585942 -5.8361106
-0.63253856 -0.95983624 -5.8371449
-0.20105219 -0.95567858 -5.8325891
0.7677052 -0.9556787 -5.8325887
1.199224 -0.95967734 -5.8371344
1.339489 -0.95603275 -5.8360248
1.9080036 -0.95603788 -5.839612
-3.0725796 -0.93070698 -5.8389549
-1.8949449 -0.93104196 -5.8318868
2.4616749 -0.93118536 -5.8318534
0.55531096 -0.92816186 -5.8300996
1.1364366 -0.92893744 -5.8345046
-3.502162 -0.91648698 -5.8372135
-3.0562987 -0.91473389 -5.8325558
-2.3963768 -0.91602325 -5.8376117
-1.1441216 -0.91509771 -5.8384609
0.43954885 -0.9147737 -5.839788
1.7108341 -0.91550303 -5.8387671
2.9630399 -0.91612315 -5.8376875
-2.4767122 -0.90911937 -5.8336763
-0.30535638 -0.90045059 -5.8371634
-0.27249354 -0.90372324 -5.8339491
0.35404027 -0.90904772 -5.8370676
0.43864089 -0.90221 -5.8341942
0.83914703 -0.90372324 -5.8339481
0.87162584 -0.90084237 -5.8369727
1.1581988 -0.90390921 -5.8313246
3.043416 -0.90920353 -5.833745
-2.8693957 -0.89806032 -5.8352513
-0.95814967 -0.89226919 -5.8335862
0.84343207 -0.89005256 -5.8350372
0.87512016 -0.89909077 -5.8343277
1.5249609 -0.89237738 -5.8341098
-1.0485649 -0.88459057 -5.8310513
-0.27721852 -0.88977909 -5.8347936
-0.036875151 -0.88222682 -5.839735
1.6152198 -0.88459033 -5.8310523
-3.4215486 -0.87088084 -5.8312793
-0.45641524 -0.87352109 -5.8357248
1.0231607 -0.87340283 -5.8359022
-3.1575065 -0.86182827 -5.8398032
-2.3167894 -0.86589479 -5.8382044
-2.007278 -0.86071599 -5.8396707
-0.19672045 -0.86013007 -5.8343377
2.5739326 -0.8607145 -5.8396707
2.8837166 -0.86598116 -5.8379769
-1.3454899 -0.85479224 -5.8383713
-1.0098753 -0.85124254 -5.8359423
1.9121437 -0.85479224 -5.8383713
-0.23025632 -0.82769918 -5.8320594
0.79696345 -0.82782686 -5.8320122
-3.0062547 -0.81654358 -5.8393259
-1.3397701 -0.81366932 -5.8322811
-0.70393324 -0.81143785 -5.8352413
1.2706735 -0.81133258 -5.8352776
1.9064716 -0.81351805 -5.8321495
-2.9649069 -0.80296767 -5.8348951
1.1238774 -0.80973452 -5.830133
-2.8673735 -0.79862368 -5.8301606
-1.8679361 -0.79653227 -5.8308487
-1.8479903 -0.79781806 -5.8300304
-0.10443094 -0.79921198 -5.8376865
0.67082334 -0.79971206 -5.8369246
2.4341426 -0.79683357 -5.8307819
3.3085127 -0.7954489 -5.8366294
-3.3546653 -0.78497863 -5.8319788
-2.870338 -0.78301692 -5.8336973
-2.5751092 -0.78495812 -5.8378668
-2.1864612 -0.78894228 -5.8310261
0.089315996 -0.78339267 -5.8394198
0.29602906 -0.78947997 -5.8355999
2.7522054 -0.78921765 -5.8307428
3.4367297 -0.78287458 -5.833827
-3.0105119 -0.77234757 -5.8363438
-2.7503915 -0.77035332 -5.8394408
-1.3929516 -0.77773577 -5.8378019
1.9601058 -0.77801555 -5.8379111
1.2836139 -0.75808883 -5.8334966
-3.6134343 -0.96156538 -5.827353
0.28643245 -0.96015191 -5.821394
-2.0107005 -0.95969129 -5.8221216
-0.96714091 -0.95548487 -5.8217287
-0.38560772 -0.95531642 -5.8254843
0.19268966 -0.95549774 -5.8290462
0.37396491 -0.95549762 -5.8290462
0.95219612 -0.95566595 -5.8253121
1.5337951 -0.95548332 -5.8217292
2.5773942 -0.9595319 -5.8221102
-1.9067066 -0.93050778 -5.8210349
2.4733598 -0.93050838 -5.8210325
-2.7718501 -0.92515004 -5.820447
-2.1095912 -0.92522895 -5.8250041
0.26993382 -0.92832959 -5.8285694
2.6763558 -0.92507327 -5.8250418
3.3385055 -0.92515004 -5.8204479
-1.9036107 -0.91347027 -5.821806
-0.46750951 -0.91123009 -5.8210793
1.0340972 -0.91138673 -5.8209448
2.4701095 -0.91326332 -5.821734
-3.2474461 -0.90947723 -5.8210707
-2.6148777 -0.90845227 -5.8233666
-2.4737034 -0.90127277 -5.8289032
-1.9618089 -0.90690553 -5.8259759
-1.550773 -0.9050951 -5.8200998
-1.2875248 -0.90518355 -5.8287268
1.8543961 -0.90543073 -5.8286076
2.1172121 -0.90532112 -5.820178
2.5283587 -0.90678287 -5.8260341
3.0402164 -0.90140289 -5.8288946
-2.7294161 -0.89903235 -5.8224134
-1.9418036 -0.8961575 -5.8264766
-1.9283407 -0.89647317 -5.821888
1.2661337 -0.89208603 -5.8264046
2.4951828 -0.89621067 -5.8214946
2.5086365 -0.89628768 -5.8267326
-3.3152204 -0.88238239 -5.8263607
-3.2440343 -0.88811851 -5.8254652
-2.1498365 -0.88911414 -5.8283806
2.7155762 -0.88882887 -5.8280959
-3.4357722 -0.87049025 -5.8297505
0.73466146 -0.87596172 -5.828959
-3.3924377 -0.86175096 -5.8255553
-0.68178594 -0.86056376 -5.8249531
1.2484615 -0.86040765 -5.8249636
-2.9525299 -0.85846263 -5.8219771
-1.9910507 -0.85972732 -5.8280287
-1.9711399 -0.85432208 -5.8260703
2.5383935 -0.85446525 -5.8252411
2.5577435 -0.85988462 -5.8280182
3.2020011 -0.85254902 -5.822279
-3.593179 -0.84790564 -5.8268347
-1.6083004 -0.84546781 -5.8221388
2.1756592 -0.84507728 -5.8233976
-1.7050645 -0.83135706 -5.828321
2.271872 -0.83107281 -5.8282523
-2.3126874 -0.82538617 -5.8211365
-1.0444329 -0.8293376 -5.8210955
0.073656678 -0.82842064 -5.8248582
0.20297301 -0.82836318 -5.8271303
1.6111685 -0.82909012 -5.821188
2.8793414 -0.8253864 -5.8211355
-3.1910553 -0.81570292 -5.8207412
-2.7285256 -0.81536245 -5.8203888
-2.9878263 -0.80960703 -5.8237815
-1.6387107 -0.8018645 -5.8223381
-1.2487398 -0.80755985 -5.8227282
1.8152814 -0.80773103 -5.8225861
2.2054434 -0.80195451 -5.8222637
-2.1335144 -0.79664612 -5.8244824
-1.942059 -0.79640073 -5.821219
2.4140272 -0.79825282 -5.8296366
2.5090089 -0.79618865 -5.8216453
2.7003109 -0.79683983 -5.8241868
-1.6392138 -0.78868914 -5.8212681
2.2054844 -0.78829241 -5.8208971
-2.9645467 -0.7788974 -5.8294063
0.56014407 -0.7779184 -5.8242583
0.96322066 -0.76795346 -5.8286119
-2.1142857 -0.75468397 -5.827457
2.6813395 -0.75478554 -5.8275943
-3.1019137 -1.0000932 -5.8135452
-2.8601105 -1.0000939 -5.8135452
-2.1347027 -1.0000949 -5.8135452
-1.8928984 -1.0000939 -5.8135452
-0.92568743 -1.0000955 -5.8135452
-0.68388498 -1.0000935 -5.8135452
-0.44208184 -1.0000942 -5.8135452
-0.2002787 -1.0000949 -5.8135452
0.041523814 -1.0000929 -5.8135452
0.28332597 -1.0000951 -5.8135452
0.52512932 -1.0000937 -5.8135452
0.76693243 -1.0000943 -5.8135452
1.0087355 -1.000095 -5.8135452
1.2505381 -1.000093 -5.8135452
2.2177489 -1.0000947 -5.8135452
2.459553 -1.0000936 -5.8135452
2.7013555 -1.0000938 -5.8135452
-3.3437364 -0.9999212 -5.8135796
-2.618325 -0.99991995 -5.8135796
-2.3765192 -0.99991995 -5.8135796
-1.6511087 -0.99992037 -5.8135796
-1.4093029 -0.99992037 -5.8135796
-1.167497 -0.99992037 -5.8135796
1.4923483 -0.99992085 -5.8135796
1.7341515 -0.99992156 -5.8135796
1.9759574 -0.99991941 -5.8135796
1.2384098 -0.96043909 -5.8191538
-2.7320335 -0.95510733 -5.8107696
-2.1403394 -0.95529354 -5.814414
-1.5520382 -0.95547771 -5.8180389
2.1187723 -0.95512462 -5.8182116
2.7070351 -0.95511556 -5.8145018
-1.8047923 -0.9295876 -5.8192282
2.3714828 -0.92971134 -5.8192735
-3.1019337 -0.90008062 -5.8135796
-2.8601291 -0.90007901 -5.8135796
-2.3765192 -0.90007997 -5.8135796
-2.134716 -0.90007931 -5.8135796
-1.9788135 -0.90849018 -5.8158798
-1.8929118 -0.90008026 -5.8135796
-1.747532 -0.90094256 -5.814702
-1.4093029 -0.90007955 -5.8135796
-1.167497 -0.90007955 -5.8135796
-0.92569566 -0.90007991 -5.8135796
-0.83399659 -0.9029119 -5.8150034
0.64268839 -0.90809107 -5.8187795
1.400579 -0.90300274 -5.8150792
1.7341515 -0.90007836 -5.8135796
1.9759574 -0.9000805 -5.8135796
2.2177613 -0.90007931 -5.8135796
2.3141131 -0.90075469 -5.8144197
2.5454154 -0.90840411 -5.8158083
3.1849782 -0.90008062 -5.8135796
-2.6183074 -0.89990532 -5.8135452
-1.6510968 -0.89990646 -5.8135452
-0.97474009 -0.89377594 -5.8165517
-0.68388498 -0.8999064 -5.8135452
-0.44208184 -0.89990574 -5.8135452
-0.2002787 -0.89990509 -5.8135452
0.041523814 -0.89990705 -5.8135452
0.28332597 -0.89990479 -5.8135452
0.52512932 -0.89990628 -5.8135452
0.76693243 -0.89990562 -5.8135452
0.89019102 -0.89343369 -5.8164134
1.0087355 -0.89990491 -5.8135452
1.2505381 -0.89990687 -5.8135452
1.4923412 -0.89990634 -5.8135452
1.5415235 -0.8938638 -5.8167243
2.459553 -0.89990634 -5.8135452
2.7013555 -0.8999061 -5.8135452
2.9431577 -0.89990604 -5.8135452
-2.3599133 -0.8845973 -5.8146596
-2.0190258 -0.88695157 -5.8102064
-0.077685297 -0.88615906 -5.8107328
0.64437073 -0.88602281 -5.810915
2.9263732 -0.88514948 -5.8139238
-3.5475466 -0.86099887 -5.8168592
-0.097306728 -0.86009574 -5.8100328
0.05766584 -0.86021852 -5.8195591
0.66395998 -0.86009777 -5.8100314
-3.585701 -0.85656476 -5.8107252
-2.809011 -0.83066702 -5.810679
-1.6175365 -0.82651973 -5.8113575
0.55599022 -0.82209206 -5.8138156
0.7378304 -0.82030249 -5.8159537
1.5708435 -0.8296088 -5.8136806
2.1841898 -0.82651842 -5.8113585
-2.8564606 -0.80071008 -5.8127689
-2.2603981 -0.80217874 -5.8152504
-1.5435281 -0.80075097 -5.8171072
-0.54697043 -0.80744946 -5.818789
1.1136229 -0.80744839 -5.8187895
2.1102083 -0.80068862 -5.8172026
2.826915 -0.80205274 -5.8152404
-1.3562566 -0.79306912 -5.8182344
-0.97759151 -0.79438657 -5.8112974
-0.023139 -0.79192793 -5.8109384
1.5443778 -0.7942999 -5.8114705
1.9229407 -0.79304856 -5.8183403
-3.2667818 -0.78769785 -5.8123913
-2.5889378 -0.78010917 -5.8188152
-1.5489094 -0.7867955 -5.8138428
2.115803 -0.78693354 -5.8137183
-1.7400992 -0.77193117 -5.8103538
1.2121065 -0.77821815 -5.8141236
2.3068562 -0.7720499 -5.810533
-2.9282212 -0.75383854 -5.8157239
-2.3889685 -0.74555075 -5.813416
2.9581444 -0.74616957 -5.8151035
-2.2691243 -0.73688984 -5.812778
2.8360775 -0.7370131 -5.8137474
-2.5050292 -0.96072316 -5.8015003
0.53898156 -0.96009713 -5.8067164
3.0716844 -0.96072459 -5.8015003
-3.191925 -0.93156719 -5.8083105
-2.1567569 -0.93127668 -5.803339
2.7234855 -0.93141985 -5.8033051
-2.1080189 -0.92577732 -5.8089299
-0.81229961 -0.92695475 -5.8094654
1.3790088 -0.92682576 -5.8094168
2.6746731 -0.92577803 -5.8089294
-2.7825375 -0.91412568 -5.8099794
-1.6673998 -0.91357285 -5.8063736
2.2340984 -0.91372448 -5.8062429
-2.8434999 -0.90032184 -5.8026628
0.74255943 -0.90967059 -5.8049703
-0.40919662 -0.89815545 -5.8014965
0.53397745 -0.89201701 -5.8076243
0.97596753 -0.8979609 -5.8012052
-2.2874267 -0.88749003 -5.8023386
-1.5918086 -0.88715053 -5.8076048
2.1584451 -0.88701451 -5.8077855
2.5854149 -0.88722324 -5.8099551
2.8540294 -0.88751268 -5.8024487
0.067112625 -0.87530565 -5.8073921
0.49937427 -0.87507248 -5.8077407
-2.5098205 -0.86076558 -5.8073139
0.3107641 -0.8603074 -5.8048568
3.0764642 -0.86091876 -5.807303
-3.0315428 -0.85649824 -5.8071928
-2.4742837 -0.85643101 -5.8036394
2.480556 -0.85636234 -5.8000679
3.0409272 -0.85660052 -5.8037233
-3.1960597 -0.8358025 -5.8039727
-2.3187261 -0.83110785 -5.800909
0.22764409 -0.83663636 -5.8015132
2.8854411 -0.83095676 -5.8008304
3.2108274 -0.83844972 -5.809103
-3.1183405 -0.82491565 -5.8010349
0.2833268 -0.82808459 -5.8007097
0.74723732 -0.82485485 -5.8061423
-2.597362 -0.8134532 -5.8016901
-1.2845849 -0.81423306 -5.8007917
-1.0760543 -0.8118217 -5.8040905
-0.16781747 -0.81197453 -5.8087225
1.6427073 -0.81182158 -5.8040924
1.8511473 -0.81392741 -5.8010244
3.1640162 -0.81345391 -5.8016891
-2.5214427 -0.80380404 -5.800684
-2.2252359 -0.80087721 -5.8027573
-0.7298097 -0.80659926 -5.8043599
0.81401801 -0.80901909 -5.806159
1.2964056 -0.80668509 -5.8042879
2.7918894 -0.80087745 -5.8027563
3.0880961 -0.80380368 -5.800684
-0.61406219 -0.7977562 -5.8042846
0.53958231 -0.79162526 -5.8022804
1.1808351 -0.79794693 -5.8039937
1.5019121 -0.79473495 -5.8009596
-1.8715665 -0.77129072 -5.8025494
-1.6328084 -0.77766848 -5.8060651
2.198101 -0.77741826 -5.8069124
2.4386988 -0.77141076 -5.8024259
-3.1381865 -0.76424122 -5.8003278
-2.8970253 -0.7597822 -5.8055682
-1.8813452 -0.75446773 -5.8068147
-1.6340591 -0.75528932 -5.8052974
-0.93129206 -0.75965953 -5.8014927
-0.91069764 -0.75164688 -5.8060408
1.4778804 -0.75178385 -5.8064137
1.4978025 -0.75957537 -5.8013382
2.2004585 -0.7549305 -5.8044219
2.4475822 -0.75476348 -5.8077993
3.4636793 -0.75978231 -5.8055682
0.79030681 -0.96021211 -5.7920775
-1.8012497 -0.92536104 -5.7940965
-0.64282727 -0.92700422 -5.7956076
0.55363053 -0.92858702 -5.7988729
1.0626677 -0.92842913 -5.7988615
1.2093937 -0.92716312 -5.7955265
2.3677959 -0.92551452 -5.7940626
-3.2851298 -0.91251445 -5.7995009
-2.5966494 -0.9160223 -5.7957959
-2.2579708 -0.91403103 -5.791307
-1.9554766 -0.9134872 -5.7989254
-1.3459222 -0.91520071 -5.7964082
-0.64636827 -0.91403198 -5.7980471
0.64286971 -0.91477418 -5.7973371
1.2130232 -0.9140327 -5.798048
1.9126188 -0.91550446 -5.796638
2.5221663 -0.91338325 -5.7988472
2.8246245 -0.91403079 -5.791306
3.1633184 -0.91622376 -5.795948
-3.147367 -0.90212488 -5.7946796
-2.6487074 -0.90938878 -5.7966285
-1.471149 -0.90750432 -5.7974567
-1.4070871 -0.90190065 -5.7955217
0.32395542 -0.90750319 -5.7943053
1.9738944 -0.90171683 -5.7953701
2.0377483 -0.90741825 -5.7973857
-1.4222263 -0.89642596 -5.7987046
-0.37390363 -0.89039481 -5.7999678
0.94043934 -0.89052713 -5.7998457
1.1771369 -0.89338851 -5.7905488
1.98888 -0.8964262 -5.7987056
-0.51846623 -0.88957918 -5.797123
1.0860636 -0.88902283 -5.79603
-1.9327142 -0.87053192 -5.7994757
1.2868376 -0.87784505 -5.797049
2.5000105 -0.87036526 -5.7993116
-1.9155194 -0.86351514 -5.7912707
-1.191489 -0.86061472 -5.792388
0.56258422 -0.86039644 -5.7902269
1.7581429 -0.860614 -5.7923884
2.4834778 -0.86317015 -5.7913294
3.0108044 -0.86352468 -5.7953115
-2.892777 -0.85398448 -5.7930174
-1.9139309 -0.85601854 -5.7998986
-1.4638734 -0.85993844 -5.794858
-1.350403 -0.85594881 -5.7963057
-0.20225394 -0.85823488 -5.7905354
1.3503506 -0.85587919 -5.7926922
1.9170386 -0.85612154 -5.7963905
2.0305283 -0.85993832 -5.7948589
-1.9676473 -0.83179653 -5.7998061
2.534451 -0.83151382 -5.7997403
-2.0033624 -0.82589459 -5.7902341
-1.5378389 -0.82970774 -5.7904677
0.35826588 -0.82874632 -5.7951646
2.1044939 -0.82970631 -5.7904682
2.5700166 -0.82589531 -5.7902327
-3.2048557 -0.81644583 -5.7979345
-3.0684662 -0.81599832 -5.7906485
-2.9204135 -0.815189 -5.7982697
-1.9692297 -0.81610346 -5.7984819
-1.939747 -0.81406844 -5.794311
-0.71498615 -0.8153553 -5.7993422
0.0082654953 -0.81490064 -5.7999835
0.55838668 -0.81489992 -5.799984
1.2816074 -0.81555653 -5.7991896
2.5063581 -0.81421804 -5.7944403
2.5359046 -0.81590509 -5.7986326
-2.943804 -0.80212522 -5.7972736
-2.720058 -0.79369342 -5.7950993
-2.6644711 -0.79909468 -5.7904334
-2.3763747 -0.79762918 -5.7917552
-0.30896071 -0.79027432 -5.7952752
0.87528622 -0.79007363 -5.7954583
1.2002563 -0.79278839 -5.7923217
2.9429376 -0.79775113 -5.7918677
-3.4519615 -0.78133976 -5.7919626
-3.2117894 -0.78509855 -5.7956657
-1.1150026 -0.78517616 -5.7945676
-0.92397451 -0.78641987 -5.7926636
-0.50994253 -0.78937435 -5.7916007
1.0773008 -0.7897799 -5.7907834
1.4906288 -0.78641987 -5.7926636
1.6815124 -0.78509229 -5.794589
-1.1717598 -0.76187801 -5.7909765
1.7376755 -0.76209116 -5.7915573
-1.0208336 -0.7596423 -5.7936735
0.46234763 -0.75681496 -5.7978735
-1.1829175 -0.96043384 -5.7864981
1.7495714 -0.9604336 -5.7864981
-1.481944 -0.95968604 -5.7888699
2.0485973 -0.95968652 -5.7888699
-2.291909 -0.92996407 -5.7887521
-2.2259243 -0.92557693 -5.7880883
0.76360869 -0.928653 -5.7825804
2.7925787 -0.92557645 -5.7880883
2.8585627 -0.92996407 -5.7887521
-2.5047445 -0.9135077 -5.7870708
0.16462278 -0.91182756 -5.7822781
0.40215063 -0.91151619 -5.782546
3.0714908 -0.91362035 -5.7870622
-3.4872594 -0.90144491 -5.7831125
-1.1297672 -0.90600312 -5.7868776
1.6962126 -0.90622783 -5.7869558
-3.2907314 -0.89520597 -5.7875237
-2.459152 -0.89956117 -5.7822776
-2.0758724 -0.89671165 -5.7811918
-1.558149 -0.89506531 -5.7845383
-1.1442733 -0.89209622 -5.7801366
1.0673193 -0.89915466 -5.7807178
1.7114471 -0.89246398 -5.7819204
2.1248021 -0.89506459 -5.7845368
2.642343 -0.89646405 -5.7814207
3.0253849 -0.89924955 -5.7819982
-1.6184907 -0.88679481 -5.785686
-1.3457981 -0.88546884 -5.7855945
-1.0957565 -0.88804829 -5.7869196
-0.068123937 -0.88781244 -5.7861586
1.6631827 -0.88822347 -5.7874827
1.913063 -0.88565302 -5.785779
2.1854026 -0.8866533 -5.7854075
-2.5827951 -0.87958378 -5.7880359
-0.86381912 -0.87623763 -5.7809877
1.4307814 -0.87669897 -5.7802997
3.1488056 -0.87994063 -5.7881169
-3.0639863 -0.86334825 -5.7813377
3.1466305 -0.86027431 -5.7898688
3.4302399 -0.86517882 -5.784306
-3.6249058 -0.8582139 -5.7815013
-0.73559809 -0.857777 -5.7898965
0.20729518 -0.85573864 -5.7854047
0.78044009 -0.85580933 -5.7890596
0.93572974 -0.85549474 -5.7816448
1.3022509 -0.85777652 -5.789897
-3.5832391 -0.83225489 -5.7884736
-3.2830172 -0.83102059 -5.7807417
-3.0516543 -0.82529747 -5.7899566
-1.6177325 -0.82645094 -5.7875805
-0.45024669 -0.82920039 -5.7820487
2.184387 -0.8264519 -5.787581
-2.3262444 -0.81005335 -5.78407
2.8928983 -0.81005335 -5.78407
-2.6249032 -0.80146891 -5.7891436
-0.14504111 -0.80820811 -5.7863884
0.49920052 -0.80841255 -5.7818193
0.76714045 -0.80596721 -5.7853422
3.1914155 -0.80134022 -5.7891359
3.2198043 -0.80981779 -5.7867689
3.3907735 -0.80005407 -5.7826138
-2.8236909 -0.79959261 -5.7829976
-0.29616424 -0.79939938 -5.7837882
0.86265934 -0.79971194 -5.7833118
-2.948554 -0.7885859 -5.786303
-1.8500388 -0.78815484 -5.7866917
-1.6066228 -0.78716099 -5.7801647
-1.3863902 -0.78614652 -5.7884736
1.3179822 -0.78717923 -5.7890015
1.74778 -0.78023124 -5.7832284
1.9538938 -0.78589815 -5.7887311
2.4167926 -0.78819776 -5.7864718
-1.1817987 -0.77979344 -5.7827806
-0.75622761 -0.77334976 -5.7818522
1.322788 -0.77323413 -5.7816777
-3.2568882 -0.76043403 -5.7855334
-2.3602693 -0.76701212 -5.7856674
0.91443843 -0.76495683 -5.788188
2.9270606 -0.76697052 -5.7855558
-1.5921279 -0.74559915 -5.7854753
2.1594822 -0.74597454 -5.786726
1.0404112 -0.9604888 -5.7774782
-2.8739295 -0.95938075 -5.7733798
3.4405842 -0.95938015 -5.7733798
-2.4160137 -0.93150938 -5.7750697
-1.5477695 -0.93008232 -5.7701473
2.1144235 -0.93008268 -5.7701468
2.9828115 -0.93179214 -5.7750039
-0.28907013 -0.92736125 -5.7778745
1.1249627 -0.91039109 -5.7734232
-1.9920599 -0.90077567 -5.7755618
-0.95369112 -0.90658665 -5.7787485
1.5202291 -0.9064126 -5.7786055
2.558713 -0.90077591 -5.7755613
-3.4619613 -0.89961439 -5.7725654
-2.627779 -0.89303505 -5.7774081
-2.767668 -0.88456142 -5.7750583
-2.0950243 -0.88449609 -5.7788568
-1.400229 -0.88879395 -5.7737284
1.9668838 -0.88879442 -5.7737274
2.6616766 -0.88449693 -5.7788572
3.3353567 -0.88402903 -5.7740126
-1.2576258 -0.87143022 -5.7780194
1.8225915 -0.87092054 -5.7786794
-3.0098443 -0.86081529 -5.7751193
0.14694166 -0.86015069 -5.7772565
0.41968894 -0.86030513 -5.7772455
0.81313646 -0.86048383 -5.775671
-2.8516607 -0.85961735 -5.7794595
-2.1180735 -0.85510373 -5.7704077
-1.5316894 -0.85499954 -5.7740588
-1.0843208 -0.85892099 -5.7723436
-0.94876409 -0.85542142 -5.7779484
-0.89231354 -0.85968411 -5.7796483
1.4588223 -0.85977185 -5.7794914
1.5154183 -0.85542309 -5.7779484
1.6506002 -0.85902286 -5.772212
2.0984228 -0.85534942 -5.774231
2.6847711 -0.85527754 -5.770493
3.4183168 -0.85961711 -5.7794609
0.89607501 -0.84661782 -5.7723174
-2.2277422 -0.83209121 -5.7715387
-1.0064526 -0.83026099 -5.77771
2.7944691 -0.83195037 -5.7715058
-1.0873538 -0.82691693 -5.7796049
-0.17815137 -0.8279264 -5.7746754
1.654009 -0.82691753 -5.7796049
-2.6459093 -0.81455493 -5.7754631
-1.4421184 -0.81251037 -5.7733212
2.0086105 -0.81271803 -5.7732477
-0.16243991 -0.79813015 -5.779789
0.857113 -0.79328454 -5.7780552
2.1735327 -0.7872985 -5.7798886
-3.4728744 -0.77129066 -5.7792921
-2.0582848 -0.7701844 -5.7764382
-1.8659531 -0.76356858 -5.7755032
2.4335306 -0.76380491 -5.7755423
2.625495 -0.7697891 -5.7757139
0.70087242 -0.75615448 -5.7756619
-3.1859925 -0.7359283 -5.7761006
-3.0064859 -0.96102417 -5.7692399
1.2892113 -0.9605996 -5.7629871
-3.1178749 -0.95898002 -5.7692218
-1.4958522 -0.92595148 -5.7634082
0.8344475 -0.92884433 -5.7694764
1.5646735 -0.92894435 -5.7680521
2.0625057 -0.92595208 -5.7634096
-2.6069314 -0.91458273 -5.7612705
-2.2656972 -0.91413897 -5.768672
-2.2229238 -0.91299236 -5.7638144
2.7895794 -0.91299403 -5.763814
2.8323092 -0.91398698 -5.7688031
3.1736588 -0.91468501 -5.7613063
-3.4383392 -0.9020381 -5.7663212
-3.1659482 -0.90213001 -5.76724
-1.9370346 -0.90087938 -5.7616396
0.0001578331 -0.9069041 -5.769443
2.5035715 -0.9005661 -5.761168
-1.7306757 -0.89647293 -5.766645
2.2973757 -0.89640689 -5.7665453
3.0988393 -0.89152658 -5.7696385
-0.81612122 -0.88807333 -5.7609973
0.63909554 -0.88438535 -5.7696805
1.3824321 -0.88828111 -5.7611837
-2.3725686 -0.87389946 -5.7606854
-1.2564164 -0.87985146 -5.7658987
-0.80187821 -0.87969279 -5.7652507
1.3690145 -0.87941247 -5.7653575
1.822264 -0.87931561 -5.7664375
2.9392235 -0.87389886 -5.760685
-0.94416183 -0.86749661 -5.7625494
0.95632279 -0.86503613 -5.7671413
1.0624295 -0.8605721 -5.7611899
1.5108153 -0.86749673 -5.7625504
-3.3533306 -0.85867488 -5.7673421
-3.3009136 -0.85495567 -5.7628655
-2.7077448 -0.85485375 -5.766561
-1.6223547 -0.85488498 -5.7607546
-0.93936431 -0.85999125 -5.7618694
1.5060176 -0.85999101 -5.7618685
3.2744935 -0.85520375 -5.7667332
3.3059423 -0.85888445 -5.7630939
0.3595314 -0.84952718 -5.7600217
-2.9713035 -0.83846486 -5.7643609
-2.4476228 -0.83766103 -5.7635975
-1.9145571 -0.83711755 -5.762805
-1.3719598 -0.83656514 -5.7619987
-0.81957412 -0.83600241 -5.7611766
0.82385492 -0.83528888 -5.7603474
1.3862922 -0.83586413 -5.7611842
1.9386134 -0.83656555 -5.7619987
2.4811511 -0.83725691 -5.7627983
3.0142212 -0.83779764 -5.7635899
-2.0260789 -0.82994914 -5.76021
0.64007169 -0.82892239 -5.7657375
0.7923708 -0.82833982 -5.7697458
1.2040533 -0.82934159 -5.7622828
2.5927684 -0.8298254 -5.7602577
-2.9140797 -0.81033468 -5.7697582
0.45782709 -0.81208682 -5.7698917
-2.9954479 -0.80061686 -5.7625861
-2.0854282 -0.80451292 -5.7670956
-1.7327796 -0.80062652 -5.7644205
0.22767061 -0.80488431 -5.766314
2.2993612 -0.80081153 -5.7641373
2.6520805 -0.80451214 -5.7670951
3.2445316 -0.80360985 -5.7616496
3.3296459 -0.80308914 -5.7614822
3.5621014 -0.80061662 -5.7625871
-2.5482109 -0.7934649 -5.7683253
-1.9361541 -0.79658186 -5.7694359
-1.5418539 -0.79290485 -5.7667418
-1.3881155 -0.79649746 -5.7614956
1.9548621 -0.79643452 -5.7615519
2.1080813 -0.79321247 -5.7651753
2.502948 -0.79677558 -5.7691393
-2.7523386 -0.78428102 -5.7693472
-1.3195474 -0.78931308 -5.7642946
1.8861997 -0.78931403 -5.7642951
3.3199303 -0.78475159 -5.7683983
-3.6490393 -0.77450824 -5.7645354
-2.4689174 -0.76593184 -5.7653246
3.0361066 -0.76622486 -5.7656245
-1.6915126 -0.96058393 -5.7540207
2.2581666 -0.96058321 -5.7540207
-2.8478417 -0.95892912 -5.7541804
-0.95590389 -0.95968127 -5.7557893
1.5225252 -0.95983899 -5.7558002
-3.4414227 -0.9382956 -5.7587566
-2.9238029 -0.93788266 -5.7579398
-2.8462181 -0.93130612 -5.7582726
-2.7739139 -0.93033791 -5.7585959
-2.3970506 -0.93746209 -5.7571068
-1.8608639 -0.93689656 -5.7562528
-1.3150408 -0.93631852 -5.7553825
-1.0014632 -0.93327421 -5.7507906
-0.40333474 -0.93390584 -5.7517438
0.18374836 -0.93452728 -5.7526793
0.76015639 -0.93527627 -5.7536049
0.97006714 -0.93376136 -5.7517381
1.3260427 -0.93587446 -5.7545056
1.568035 -0.93342108 -5.7507997
1.8816949 -0.93631947 -5.7553835
2.4275169 -0.93689537 -5.7562528
2.9636483 -0.93732381 -5.7570992
3.3405375 -0.9302156 -5.7585497
-2.5157442 -0.92529762 -5.7544918
-1.6860789 -0.92599773 -5.7560892
2.2527318 -0.9259975 -5.7560883
3.0822964 -0.92546189 -5.7544088
-3.0770552 -0.91251397 -5.7560568
-2.7969282 -0.91612363 -5.7540579
-1.9889443 -0.91000962 -5.7572055
-1.7490128 -0.91348743 -5.7558184
-1.5477096 -0.91520071 -5.7542772
0.84619075 -0.91477418 -5.7548857
1.0081685 -0.91392899 -5.7551913
2.1144028 -0.91550446 -5.754508
2.3157349 -0.91327858 -5.7556596
2.5555978 -0.91000986 -5.7572055
3.3635886 -0.91622424 -5.7541342
-2.5888715 -0.900002 -5.7554951
-0.71567345 -0.90700579 -5.7542458
0.99262983 -0.90547538 -5.7595301
1.2823272 -0.90700603 -5.7542472
3.2284613 -0.90979683 -5.7521315
3.1558635 -0.89962816 -5.755187
-2.6342258 -0.88459682 -5.7573862
-1.3230401 -0.88728571 -5.7513051
-0.34916919 -0.88629663 -5.7538605
0.91585648 -0.88615966 -5.7540417
1.8896735 -0.88715065 -5.7514839
-1.7719229 -0.87817049 -5.7537227
2.3387167 -0.87839866 -5.7533827
2.6697621 -0.87007505 -5.7554088
-2.1026649 -0.86975181 -5.75599
-1.6986222 -0.86066413 -5.7599869
-0.54033232 -0.86353874 -5.7552223
2.2652767 -0.86066484 -5.7599859
-3.0826981 -0.85877115 -5.752274
0.49732649 -0.85511255 -5.7593961
2.1887558 -0.85525262 -5.7598786
-3.3878298 -0.83940744 -5.7533646
-2.7782247 -0.83161217 -5.7549949
-2.1494324 -0.83254951 -5.7559147
-1.9655262 -0.83085257 -5.7504525
-1.5322475 -0.83302999 -5.7568388
-0.92670381 -0.83364731 -5.7577391
-0.33231127 -0.83410919 -5.7586298
0.25093591 -0.83498824 -5.7594824
0.89911902 -0.834396 -5.758615
1.4933587 -0.83364844 -5.75774
2.0988162 -0.83288419 -5.7568464
2.5323081 -0.83054948 -5.7502971
2.7159061 -0.83225447 -5.7559299
3.344974 -0.83176154 -5.7549877
-2.5046124 -0.82583964 -5.757741
-1.6970953 -0.82609165 -5.7595859
2.2638562 -0.82624435 -5.7596211
3.0712676 -0.82583934 -5.7577419
-2.5318923 -0.8149122 -5.7572188
-2.3910971 -0.81345308 -5.7586241
-2.3674579 -0.81380117 -5.752316
-2.1693251 -0.81600404 -5.7567825
-1.1026654 -0.81626081 -5.7537036
-1.0798992 -0.8142333 -5.7580547
-0.91656494 -0.81545615 -5.7571745
0.21141803 -0.81479931 -5.7576504
0.35523605 -0.81479883 -5.7576504
0.82251531 -0.81032419 -5.7592149
1.483219 -0.81545615 -5.7571745
1.6464652 -0.81392717 -5.7582893
2.7359889 -0.81590414 -5.7568588
2.9341125 -0.81380093 -5.752315
2.9577508 -0.81345415 -5.7586226
-3.4227366 -0.80153477 -5.7519608
-2.4255118 -0.80934405 -5.7514782
0.17953613 -0.80767643 -5.7570858
0.25008726 -0.80927753 -5.7543988
2.9922161 -0.80926013 -5.7515478
-1.4931619 -0.79493332 -5.7514791
2.0592363 -0.79531628 -5.7513933
-2.8260255 -0.78615093 -5.7539716
-2.6493447 -0.78005636 -5.7500291
-1.7021227 -0.78166831 -5.7526951
-0.13455966 -0.78832972 -5.7507291
0.21486121 -0.78319931 -5.7525759
0.55752409 -0.78455895 -5.7598329
2.2690353 -0.78149545 -5.7525172
3.3925402 -0.78601551 -5.7538452
-2.4559736 -0.77454758 -5.7500157
-1.2906587 -0.77163666 -5.7507553
-0.88451761 -0.77949232 -5.7550292
0.2017132 -0.77530718 -5.7549591
1.4516528 -0.77976656 -5.7551332
1.8563967 -0.77190447 -5.7511115
3.2155154 -0.7797932 -5.7500896
-2.9608653 -0.76680493 -5.7524862
3.5259809 -0.76643384 -5.7528729
1.0127959 -0.75808907 -5.7578096
1.5367641 -0.96070969 -5.748569
-2.3401537 -0.95953608 -5.7400937
2.9068079 -0.95953655 -5.7400942
-2.865238 -0.93145657 -5.7478304
-2.672893 -0.93202126 -5.7470093
-2.2321293 -0.93197447 -5.7488308
-1.6109533 -0.93262994 -5.7498212
2.1775203 -0.93277723 -5.7498274
2.7987833 -0.93197519 -5.7488317
3.4319878 -0.931306 -5.7478232
-1.0345606 -0.92654204 -5.7422223
1.1125956 -0.92938852 -5.7403092
1.601124 -0.92670238 -5.7421412
-1.9367993 -0.91235721 -5.7402182
0.78847051 -0.91257143 -5.7438564
1.5015584 -0.91141915 -5.7424874
2.503453 -0.91235697 -5.7402182
-3.3343453 -0.90218759 -5.7425218
-3.1321561 -0.90981913 -5.7450628
-0.32906488 -0.90605021 -5.7441983
-2.3736019 -0.89766669 -5.7447109
0.38560349 -0.8919034 -5.7446504
0.86048627 -0.89110339 -5.74371
0.90249825 -0.8991546 -5.7446504
2.9400406 -0.89751577 -5.7446761
-3.5173249 -0.8881216 -5.7489777
-3.2275209 -0.88476682 -5.7420292
-2.0928075 -0.88742238 -5.747026
-1.5169603 -0.88291144 -5.7424116
1.0627424 -0.88232511 -5.7409749
2.0833139 -0.88308495 -5.7424517
2.6593094 -0.88749015 -5.7473555
-3.6952548 -0.87452555 -5.7449226
-0.8241812 -0.87349987 -5.7400723
0.031735182 -0.87798607 -5.7442036
-3.2812598 -0.86082268 -5.7428722
-3.0293827 -0.86611021 -5.7489243
-2.6866703 -0.86992908 -5.7411065
-2.3943808 -0.86622036 -5.7464743
-0.36741042 -0.86051244 -5.7446237
0.93408513 -0.86035693 -5.7446351
1.3104733 -0.86066002 -5.7467804
2.9615698 -0.86592197 -5.7467747
-2.3194532 -0.8595137 -5.7462664
2.8861489 -0.85967207 -5.7462549
3.3809776 -0.85441554 -5.7496181
-1.1274172 -0.84395695 -5.7421627
-0.27072784 -0.84656739 -5.746139
-2.4853096 -0.83238304 -5.743546
-3.5355277 -0.82460308 -5.7460098
-0.56292188 -0.82718325 -5.7482471
1.1296301 -0.82731068 -5.7481995
-1.8025209 -0.81318915 -5.7430248
-1.6737162 -0.81080532 -5.745163
2.2403693 -0.81080532 -5.745163
2.3689394 -0.81349719 -5.7429175
-3.1304507 -0.80212569 -5.7451091
-0.32268834 -0.80395687 -5.7467585
-0.11077362 -0.80134058 -5.7407446
0.88934243 -0.80395722 -5.746758
1.4366564 -0.80001116 -5.7422628
-3.3102469 -0.79409194 -5.7463474
-2.468034 -0.7961328 -5.7449355
-2.4242609 -0.79916203 -5.7462044
-1.6551217 -0.79810619 -5.7435765
-0.86947262 -0.79949069 -5.7420092
-0.41957283 -0.79782021 -5.7498212
0.98634136 -0.79801106 -5.7495289
2.2214966 -0.79784203 -5.7434483
2.990494 -0.7994684 -5.7459249
3.0348368 -0.79626894 -5.7450018
-1.1427906 -0.78939748 -5.7453079
0.11946806 -0.7807132 -5.7448235
0.90909058 -0.78308761 -5.7493153
1.1079648 -0.78241765 -5.7441802
1.7095677 -0.78952885 -5.7454309
3.022449 -0.77445161 -5.7499795
-0.89921176 -0.76767761 -5.7473416
1.4662137 -0.76776981 -5.7473555
-3.6193795 -0.7588464 -5.7482409
-1.0366714 -0.75943989 -5.7425456
1.6023957 -0.75919539 -5.742219
-3.5054159 -0.96086216 -5.7371068
0.92311025 -0.96028924 -5.7385798
1.7830789 -0.96081829 -5.7342224
-2.5791461 -0.9590466 -5.7391829
3.1458001 -0.95904648 -5.7391839
-3.1304355 -0.92485273 -5.7336621
-1.4945538 -0.92907953 -5.7374301
-1.1936789 -0.92653584 -5.7330441
0.38693023 -0.92820776 -5.7302127
1.7604352 -0.92638415 -5.7330794
2.0612462 -0.92920589 -5.7374783
-2.9506855 -0.91522717 -5.7317247
-2.8562267 -0.91439766 -5.7317128
-2.7166474 -0.90274531 -5.7332015
3.2835374 -0.90251148 -5.7331209
-3.1983902 -0.89902246 -5.7348504
-3.0902002 -0.8952055 -5.7314792
-3.0312343 -0.89806032 -5.73523
-2.6421294 -0.89270556 -5.7366834
-1.170346 -0.89669251 -5.735404
3.2095506 -0.89289397 -5.7372909
-1.7766023 -0.88144767 -5.736002
-1.5137404 -0.88794434 -5.7339983
2.0800135 -0.88834572 -5.7336287
2.3433843 -0.88153464 -5.7359142
-3.3611484 -0.87266612 -5.7366619
-1.7539092 -0.87622404 -5.7388005
-0.029115133 -0.87143081 -5.7354841
0.49518913 -0.87083268 -5.7327776
2.3191838 -0.87649095 -5.7396569
1.5572774 -0.86074674 -5.7324433
-2.813549 -0.85903746 -5.7373223
3.380203 -0.8590371 -5.7373219
-3.2428725 -0.83200884 -5.738924
-2.509161 -0.83031034 -5.7302237
3.0757823 -0.83043122 -5.7301788
-2.0181887 -0.82583237 -5.7334695
-0.72866094 -0.82909179 -5.738925
0.33849144 -0.82137632 -5.7399726
0.91885293 -0.82938588 -5.7366757
1.2953579 -0.8289665 -5.7389722
2.5848417 -0.82583117 -5.7334695
-3.3887925 -0.81055391 -5.7336254
0.5053519 -0.81278116 -5.7301307
1.0749331 -0.81311107 -5.7323608
-3.4026463 -0.80227625 -5.7312098
-2.763741 -0.8090198 -5.7346625
-2.1190033 -0.80743635 -5.735733
-1.927721 -0.80824935 -5.7329226
-1.657006 -0.80543375 -5.7339954
-1.4534181 -0.8060472 -5.7369556
-0.14508608 -0.80680794 -5.7319527
0.62308085 -0.80287737 -5.7393994
1.3329389 -0.80448788 -5.7381573
2.0199654 -0.80616891 -5.7370152
2.2234437 -0.80521035 -5.7340741
2.4942708 -0.80841863 -5.7327819
2.6853526 -0.80779672 -5.735909
-3.372479 -0.79988194 -5.7355838
-3.2961915 -0.79485118 -5.734375
-3.0287526 -0.79866529 -5.7303061
0.4431504 -0.79296589 -5.737618
-3.485692 -0.78496313 -5.7382836
-2.6827841 -0.78845406 -5.7306337
-2.1247516 -0.78493679 -5.7374701
-1.6562639 -0.78811222 -5.732234
-1.1950318 -0.78601432 -5.7354999
1.0494885 -0.78744602 -5.7333112
1.7617655 -0.78628421 -5.7358627
2.223305 -0.78828317 -5.7313604
2.6912808 -0.78486693 -5.7375331
-1.8225654 -0.76833642 -5.7322364
2.3890481 -0.76824009 -5.7321362
-2.5512753 -0.73682797 -5.7325988
3.1182356 -0.73695123 -5.7335653
-2.1975422 -0.96073043 -5.7217064
2.764185 -0.96057618 -5.721694
-3.366473 -0.95640218 -5.7294636
-2.8099654 -0.95639598 -5.7256098
-2.3118498 -0.95916569 -5.7242627
-2.2503431 -0.95639229 -5.7217336
2.8169847 -0.9562217 -5.721817
2.8785038 -0.95916545 -5.7242641
-3.2508869 -0.93070793 -5.7287555
-1.152213 -0.92641366 -5.7244439
1.7188098 -0.92654395 -5.724493
-2.6450648 -0.90911913 -5.7265301
-0.30861831 -0.90777159 -5.7220759
3.2117674 -0.90920305 -5.7265997
-2.1069064 -0.89611423 -5.7243171
-1.3308562 -0.89224762 -5.7282581
0.10063863 -0.89119625 -5.7261949
1.2594595 -0.89909124 -5.7269144
1.5147661 -0.89452827 -5.7283897
1.8975102 -0.89224762 -5.7282581
2.6737351 -0.89624417 -5.7245736
-2.6570048 -0.8794924 -5.7279768
-2.203203 -0.86071396 -5.7277489
-0.41754055 -0.86004406 -5.7290487
0.9841938 -0.86004341 -5.7290487
2.7698565 -0.86071599 -5.7277484
-2.5457294 -0.85913235 -5.7224126
3.1123831 -0.85913223 -5.7224131
-3.4809361 -0.83570182 -5.7243571
0.56534469 -0.83685946 -5.7279334
0.60721028 -0.8377316 -5.7226272
-1.9635286 -0.82611668 -5.7259817
-1.3940601 -0.8262884 -5.7292619
-0.56325388 -0.82764316 -5.721765
1.1298212 -0.82748318 -5.7216825
1.9608181 -0.82643938 -5.7292986
2.5302453 -0.82624602 -5.7259331
-3.1165643 -0.81544673 -5.7203407
-2.084789 -0.81314844 -5.7288299
0.63905299 -0.81011522 -5.7229991
2.6514428 -0.81314874 -5.7288299
-0.88392019 -0.80274224 -5.7270346
1.4505019 -0.80265331 -5.7271085
-2.790483 -0.79843926 -5.722486
-1.3743877 -0.79559374 -5.7296691
1.0545257 -0.79964983 -5.7297931
1.941041 -0.79559457 -5.7296696
-2.2078936 -0.78331876 -5.723289
-0.84730339 -0.78852779 -5.7210059
1.4136164 -0.78832471 -5.7211924
2.7744231 -0.78340387 -5.7233763
0.010512114 -0.77168083 -5.7208471
1.1355217 -0.77675915 -5.7280641
-1.9104891 -0.75555944 -5.7287531
0.3678413 -0.75074244 -5.7248726
2.4768181 -0.75511026 -5.7276597
-1.4615111 -0.96092618 -5.7199483
2.0281653 -0.96092701 -5.7199478
-1.6875626 -0.95621598 -5.7179193
-1.1216049 -0.95603728 -5.7140827
1.1191249 -0.95603275 -5.7101412
1.6882598 -0.95603764 -5.7140837
2.2542005 -0.95604312 -5.7180033
-2.9272842 -0.93252933 -5.7192211
1.3879426 -0.92993009 -5.7114367
1.751924 -0.92965388 -5.7187552
-2.9972043 -0.91622376 -5.7123194
-2.8689413 -0.91261864 -5.7126923
-1.7494968 -0.91519904 -5.7121439
-1.6463655 -0.9117111 -5.7162657
-1.5425837 -0.91338181 -5.7126303
-1.3380606 -0.91062427 -5.7183113
-1.3053173 -0.91211295 -5.7119288
1.049474 -0.91456962 -5.7122793
1.8719708 -0.91211295 -5.7119284
1.9047172 -0.91062331 -5.7183104
2.1092708 -0.91327953 -5.712553
2.2130203 -0.91171181 -5.7162662
2.3161862 -0.91550493 -5.7123775
3.4354775 -0.91293383 -5.7129316
-1.6019888 -0.90617299 -5.7106037
-0.66360885 -0.90518308 -5.7185464
0.042939186 -0.90127325 -5.713129
0.7751286 -0.90313029 -5.7121782
1.2303864 -0.90505952 -5.7185545
1.4832309 -0.90467632 -5.7113781
2.1685371 -0.90605104 -5.7106624
-3.1489031 -0.89442217 -5.7166758
-2.4967334 -0.89741099 -5.7116461
-2.3086224 -0.89612216 -5.7157927
-2.013926 -0.89801598 -5.713974
-1.5330102 -0.89647269 -5.711401
-1.4976001 -0.89776677 -5.7149358
-1.143241 -0.89368725 -5.7121577
-0.71381176 -0.8998788 -5.7138596
1.2809931 -0.89935178 -5.7141132
1.623981 -0.89451778 -5.7185984
1.7100222 -0.89377522 -5.7123318
2.0639768 -0.89803308 -5.7148089
2.099575 -0.89660287 -5.7115979
2.5801427 -0.89770007 -5.7136893
2.8754225 -0.89598674 -5.7158566
3.0632977 -0.89728743 -5.7117596
-1.6756532 -0.87169027 -5.7134562
2.2424092 -0.87157083 -5.7136326
-1.7479265 -0.86811864 -5.7136197
-1.2361971 -0.86083281 -5.7181764
-0.87920034 -0.86056405 -5.7121797
1.4458731 -0.86040986 -5.7121916
1.8028508 -0.86083329 -5.7181768
2.31441 -0.8682158 -5.7135239
-1.7900739 -0.85972643 -5.7132206
1.0307677 -0.85777605 -5.7140255
2.3567662 -0.85988474 -5.7132092
3.4313989 -0.84985161 -5.7185869
-2.7404556 -0.83253253 -5.7157917
0.64836991 -0.83535767 -5.7185793
-3.5128667 -0.82073343 -5.7151494
-0.044306397 -0.82769918 -5.7171359
0.83358824 -0.82907009 -5.7103691
-2.3694098 -0.81600475 -5.7150059
-2.184798 -0.81335044 -5.7156367
-2.157315 -0.81395769 -5.713161
-1.3346378 -0.81238759 -5.7123365
-1.1181448 -0.81555653 -5.7150068
-0.87518406 -0.81413054 -5.7153978
0.41456777 -0.81469774 -5.7153168
1.4418099 -0.81402922 -5.7154751
1.6848443 -0.81525588 -5.7152367
2.7238932 -0.81406093 -5.7131233
2.7514865 -0.81345344 -5.7155581
2.9360733 -0.81590486 -5.7150822
-1.9219574 -0.80068874 -5.7114477
-1.4201742 -0.80747426 -5.713728
1.9867746 -0.80756009 -5.7136555
2.4884944 -0.80099738 -5.7109747
-2.3084021 -0.79794085 -5.7124529
-2.1067979 -0.79640073 -5.7194047
-1.7388415 -0.79658222 -5.7142911
-1.7272457 -0.79288453 -5.7145166
0.060291111 -0.79240716 -5.715641
2.2935958 -0.79311001 -5.7133665
2.305496 -0.79658234 -5.7142916
2.6736276 -0.79627329 -5.7196617
2.8748374 -0.79809093 -5.7124195
-2.9912598 -0.76051998 -5.711513
-0.083759479 -0.74628443 -5.7147255
-1.7053783 -0.96103549 -5.7057433
1.436388 -0.96043956 -5.7060585
2.2719941 -0.96087307 -5.7057772
-2.0459428 -0.95928258 -5.7094216
-1.8091395 -0.95969081 -5.7069798
-0.02892971 -0.95549703 -5.7024465
0.54674101 -0.95585287 -5.7062621
0.59555221 -0.95567203 -5.7023621
2.3758328 -0.95953214 -5.7069683
2.6126623 -0.9591133 -5.709456
-2.4970877 -0.93089062 -5.7078218
3.0638032 -0.93104267 -5.7077456
-2.5794837 -0.92515218 -5.7015595
-1.9859364 -0.92958713 -5.7072744
-0.89477855 -0.92696267 -5.703033
1.4615334 -0.92681074 -5.7030687
2.5526266 -0.9297123 -5.7073212
3.1461399 -0.92515123 -5.70156
-3.5323966 -0.91027343 -5.7084818
-3.2892771 -0.91586256 -5.7026253
1.4039787 -0.91284537 -5.7063341
-3.3577497 -0.90330696 -5.7061768
-3.1554515 -0.90338302 -5.7062716
-3.1495452 -0.90028954 -5.7068567
-2.9531708 -0.90338373 -5.7062726
-2.908968 -0.90902859 -5.7091279
-2.7509031 -0.9033072 -5.7061777
-2.5486362 -0.90322995 -5.7060814
-2.3463659 -0.90315366 -5.7059865
-2.2657847 -0.90762436 -5.7098546
-2.1464181 -0.90585995 -5.7068977
-2.1265156 -0.90075469 -5.7084823
-1.9417869 -0.90323019 -5.7060814
-1.739504 -0.90322995 -5.7060814
-1.5372201 -0.90322971 -5.7060804
-1.3349371 -0.90323043 -5.7060823
-1.1326613 -0.9031539 -5.705987
-0.93037176 -0.90323043 -5.7060823
-0.65375787 -0.90291142 -5.7002921
1.0924593 -0.90323019 -5.7060814
1.2203417 -0.90300131 -5.7003675
1.2947487 -0.9031539 -5.705987
1.4970371 -0.90307689 -5.7058907
1.6993293 -0.90299916 -5.7057939
1.9016002 -0.90315366 -5.7059865
2.1038752 -0.90323019 -5.7060814
2.3061678 -0.90315366 -5.7059865
2.5084639 -0.90307641 -5.7058897
2.6931241 -0.90062857 -5.708293
2.7130339 -0.90569866 -5.7067327
2.8322368 -0.90738177 -5.7099705
2.9130204 -0.90315318 -5.705986
3.1152904 -0.90323019 -5.7060814
3.3175743 -0.90322971 -5.7060804
3.5198419 -0.90330744 -5.7061777
-3.0162983 -0.89418817 -5.7056279
0.70621127 -0.89201629 -5.7011752
1.7400709 -0.89367366 -5.7033391
-3.5205743 -0.8813374 -5.7020388
-2.690547 -0.88261944 -5.7004905
-2.282212 -0.88317162 -5.7067842
2.8488653 -0.88317138 -5.7067833
3.2570703 -0.88269204 -5.7005558
-2.1028082 -0.87464488 -5.7043581
0.83297634 -0.87491488 -5.7099957
2.6698949 -0.87477994 -5.7041831
-1.4805491 -0.8609187 -5.7039819
1.0929217 -0.86018074 -5.7045269
2.0471635 -0.86108136 -5.7040143
-2.2793007 -0.85922766 -5.7075806
0.97964549 -0.85677671 -5.7072659
2.8459544 -0.85922706 -5.7075782
1.0774087 -0.84181494 -5.7087226
-2.9872022 -0.83066702 -5.7005506
0.81819522 -0.83527303 -5.7089758
0.95374697 -0.83451545 -5.7020292
-1.2264218 -0.82933855 -5.7086196
1.1949158 -0.8297025 -5.7078729
1.7931153 -0.82921493 -5.7086658
-1.7979969 -0.81237227 -5.7049875
-1.0298979 -0.81154919 -5.7067761
1.5964814 -0.8113935 -5.7066422
2.3645525 -0.81248611 -5.7049947
-1.4567893 -0.80177391 -5.7066813
-1.2356566 -0.80622804 -5.7014904
-0.47514331 -0.80616868 -5.7064342
1.8021011 -0.80600655 -5.7015676
2.0235965 -0.80195391 -5.706531
3.4994962 -0.80849743 -5.7066369
-1.1456529 -0.79447299 -5.7071757
0.35308248 -0.79150593 -5.7059059
0.45007533 -0.79712391 -5.7011008
0.79428345 -0.79099649 -5.7092929
1.712435 -0.7943868 -5.7073493
-1.5835121 -0.78357553 -5.7055664
-1.3249874 -0.78842807 -5.7033043
1.8915465 -0.78844887 -5.7032328
2.1500144 -0.78348958 -5.705586
-1.479026 -0.77828789 -5.7020197
-1.196629 -0.77066445 -5.7001901
1.7631173 -0.77056932 -5.7000942
2.04568 -0.77828741 -5.7020192
-2.0022223 -0.7570684 -5.7020388
2.5690305 -0.75715542 -5.702199
-1.9480354 -0.96114415 -5.6916099
2.5146523 -0.96098053 -5.6916432
-3.2073507 -0.95922512 -5.6907969
-1.781412 -0.95940202 -5.6946545
-1.7755619 -0.95547605 -5.6903515
-1.1899886 -0.95565772 -5.6943216
-0.6078254 -0.95549071 -5.6984377
1.174479 -0.95549035 -5.6984377
1.7566792 -0.95548308 -5.6944065
2.3452144 -0.95717692 -5.6926069
-3.758954 -0.93237793 -5.6971555
-3.1792216 -0.93303001 -5.6917014
-2.9279027 -0.92464745 -5.6995578
1.1908815 -0.92682672 -5.6931486
-3.4392962 -0.9149518 -5.6949692
-1.3512204 -0.91070712 -5.6919732
1.9181805 -0.91105664 -5.6919508
-3.0194452 -0.90075541 -5.6998663
-2.2749586 -0.90346438 -5.6997871
-1.0030961 -0.90480208 -5.6924448
1.5700037 -0.90455228 -5.6924601
