# .PCD v0.7 - Point Cloud Data file format
VERSION 0.7
FIELDS x y z
SIZE 4 4 4
TYPE F F F
COUNT 1 1 1
WIDTH 1374
HEIGHT 1
VIEWPOINT 0 0 0 1 0 0 0
POINTS 1374
DATA ascii
0.29737493 -0.79758513 -1.0306349
-0.13750604 -0.78578532 -1.0369242
0.3939808 -0.78573847 -1.0370334
1.1244918 -0.77960795 -1.0337917
-0.19073915 -0.96031946 -1.0210903
0.44716263 -0.96047544 -1.0211172
0.98000705 -0.92974299 -1.0272758
-0.41222322 -0.91902745 -1.0215341
-0.022854447 -0.91092432 -1.0212754
0.27921024 -0.91071081 -1.0210836
0.66862142 -0.91902721 -1.0215342
-0.11293082 -0.90678924 -1.0243193
0.36932987 -0.9067902 -1.0243165
-0.0039099604 -0.89210188 -1.0254571
0.26034573 -0.89217103 -1.0255759
1.2393748 -0.89600098 -1.0208876
-0.095780879 -0.88859153 -1.0222729
0.35217926 -0.88859212 -1.0222743
1.1831782 -0.87530869 -1.0248412
1.2037911 -0.85804325 -1.0265965
0.82839721 -0.83322394 -1.0221525
1.1721371 -0.82963747 -1.0254271
0.64072347 -0.81068945 -1.0270257
0.93304402 -0.81976777 -1.0297415
-0.15887335 -0.80773187 -1.0292418
0.017924666 -0.80841959 -1.0202223
0.23847455 -0.80841935 -1.0202221
0.41527334 -0.80773205 -1.0292432
-0.55152714 -0.79532492 -1.0220274
0.75699592 -0.79183447 -1.0252134
0.77648944 -0.78517461 -1.0277613
1.0988551 -0.78118402 -1.0230421
-0.43822798 -0.76351064 -1.0293057
0.69491196 -0.76367623 -1.0298045
-0.31591463 -0.9356693 -1.0156715
-0.15270698 -0.93223321 -1.0129771
-0.0938586 -0.93553305 -1.0156051
0.07526511 -0.93515897 -1.0101957
0.12819993 -0.93553305 -1.0156052
0.18098968 -0.93544227 -1.0102446
0.35025847 -0.93553305 -1.0156052
0.40910429 -0.93223202 -1.0129759
0.57231957 -0.93539596 -1.0155385
0.79437912 -0.93539739 -1.0155393
1.0164385 -0.93539691 -1.0155389
1.2385038 -0.93525958 -1.0154723
1.4605651 -0.93526006 -1.0154727
0.69718945 -0.92999333 -1.0124741
1.2130532 -0.89879733 -1.0188284
1.4873025 -0.88599288 -1.0185359
-0.04661271 -0.87177575 -1.0184925
0.30220661 -0.87154472 -1.0187073
0.88871312 -0.86792785 -1.0118346
0.8550657 -0.82728338 -1.0188062
0.88841265 -0.82997191 -1.0106261
-0.4834516 -0.80576819 -1.0101198
-0.045424312 -0.80972171 -1.0196865
0.3017109 -0.80983955 -1.0196775
0.62906748 -0.80920196 -1.0113009
0.7397275 -0.80564457 -1.0100772
1.43214 -0.80301207 -1.0124609
1.3782156 -0.79031932 -1.0103924
1.2948974 -0.77096879 -1.0183691
0.86463714 -0.96110368 -1.0014054
1.1138104 -0.96099758 -1.00866
1.2372055 -0.9195323 -1.0034823
-0.12682694 -0.90050232 -1.0041207
0.12814276 -0.90936178 -1.0073347
0.383376 -0.90070045 -1.0042098
1.3674463 -0.88456708 -1.0082912
1.1731541 -0.87271625 -1.001125
0.96857256 -0.86068171 -1.0097582
1.0872105 -0.86134124 -1.0005041
1.336818 -0.8610872 -1.0077404
-0.42166573 -0.84143418 -1.0043446
-0.43525636 -0.83500195 -1.0048174
0.6915037 -0.83471817 -1.0048661
-0.35835576 -0.82621479 -1.0029168
1.3645645 -0.82782042 -1.002894
1.1595452 -0.81165707 -1.0043699
-0.6440928 -0.80056214 -1.0012071
1.0132527 -0.80986667 -1.00258
1.1145194 -0.80175751 -1.0040588
1.2177997 -0.80920696 -1.0023462
0.93591362 -0.7816667 -1.0070059
1.427084 -0.78313756 -1.00021
-0.084595039 -0.77238941 -1.0015516
0.34019428 -0.7726115 -1.0017645
1.2169876 -0.77629828 -1.0083306
0.61673474 -0.96121037 -0.99418628
0.9583075 -0.96062309 -0.99580729
-0.16088933 -0.93024212 -0.99782228
0.41719773 -0.93038523 -0.99780631
1.3484416 -0.93313885 -0.99242914
1.0275636 -0.92568493 -0.99418473
1.3283467 -0.9101063 -0.99921417
-0.56114876 -0.89707875 -0.99273133
0.81754553 -0.89707851 -0.99273115
0.023457587 -0.88680243 -0.99320495
0.23279351 -0.88689148 -0.99318922
1.4262867 -0.87421554 -0.99382007
0.83881968 -0.86143374 -0.99328887
1.1440647 -0.86044633 -0.99834383
-0.49043494 -0.85965043 -0.99726629
-0.35130849 -0.83044535 -0.99599385
0.60770726 -0.83044571 -0.99599504
1.391017 -0.81062412 -0.99395168
0.75891173 -0.79044569 -0.99743956
-0.16185695 -0.78889656 -0.99188215
0.41825658 -0.78889692 -0.99188286
0.84592593 -0.76828361 -0.99439412
-0.11369544 -0.96131617 -0.98700178
0.37009418 -0.96131617 -0.98700273
1.1599483 -0.96002734 -0.98421097
1.0008006 -0.95849395 -0.98424959
0.11622775 -0.93062967 -0.9833076
0.14017063 -0.93062997 -0.98330855
0.76154011 -0.93483174 -0.98344243
-0.33624226 -0.90516865 -0.98078024
0.59264094 -0.90516818 -0.98078227
1.4341054 -0.89194942 -0.98463345
1.3235288 -0.88552171 -0.98793864
1.3841 -0.88256627 -0.98658472
-0.014462262 -0.87575603 -0.98524225
0.27039367 -0.87562197 -0.98521483
-0.33529365 -0.86152512 -0.98611152
0.59169227 -0.86152488 -0.98611081
1.4755397 -0.86074048 -0.98461747
-0.073391333 -0.83077115 -0.98149705
0.32978958 -0.83077061 -0.98149848
-0.17186536 -0.81079483 -0.98256552
0.42824084 -0.81068861 -0.98266238
0.681494 -0.80018163 -0.98148841
-0.055837162 -0.78688818 -0.98833072
0.31208807 -0.78680062 -0.98831594
-0.051606238 -0.77586716 -0.98102546
0.30738354 -0.77603972 -0.98098958
-0.57294428 -0.99993128 -0.97608054
-0.3392294 -0.99993104 -0.97608054
-0.10551615 -0.99992979 -0.97608054
0.1281995 -0.99993002 -0.97608054
0.36191177 -0.99993038 -0.97608054
0.59562665 -0.99993014 -0.97608054
0.82934076 -0.99992937 -0.97608054
1.0630546 -0.99993074 -0.97608054
1.2967695 -0.99993062 -0.97608054
-0.11944063 -0.9615261 -0.97274673
0.12470546 -0.96142167 -0.97985733
0.13169315 -0.96142125 -0.97985566
0.37583905 -0.96152514 -0.97274745
1.4667881 -0.96077096 -0.9706291
-0.20511436 -0.95833153 -0.97313404
0.46151209 -0.95833117 -0.97313374
1.1828997 -0.93088144 -0.97008985
1.5333807 -0.93671012 -0.97700346
-0.24009347 -0.92624044 -0.97816366
0.49654549 -0.92610979 -0.9781
-0.23557654 -0.91103065 -0.97696126
0.49191302 -0.9107101 -0.97667259
-0.10551615 -0.90007025 -0.97608054
0.1281995 -0.90007001 -0.97608054
0.36191177 -0.90006965 -0.97608054
0.59562665 -0.90006989 -0.97608054
0.82934076 -0.90007067 -0.97608054
1.0630546 -0.9000693 -0.97608054
1.2967695 -0.90006942 -0.97608054
1.3607013 -0.90918255 -0.97421682
1.5304835 -0.90007025 -0.97608054
-0.15856475 -0.8868506 -0.97020698
0.41481036 -0.88663876 -0.97048694
1.25994 -0.88800704 -0.97930241
1.2980344 -0.87110388 -0.97903967
-0.089420095 -0.86161524 -0.97896945
0.10118978 -0.86170518 -0.97186649
0.15520924 -0.86170405 -0.9718641
0.21628769 -0.86610615 -0.97009361
0.34581885 -0.86161554 -0.97897065
0.62689185 -0.86050659 -0.97296858
-0.48463821 -0.83173293 -0.97984463
0.7411164 -0.83188069 -0.97990346
1.0406067 -0.83645403 -0.97161466
1.279379 -0.83408648 -0.9779011
-0.012473628 -0.80908924 -0.97353941
0.26875716 -0.80897039 -0.97354794
0.008548215 -0.79242468 -0.97629452
0.052664429 -0.79758537 -0.97954208
0.2037046 -0.79746342 -0.9793961
0.24785106 -0.7924251 -0.9762935
1.0097775 -0.79823256 -0.97880602
1.3992331 -0.78506649 -0.97275031
-0.65725696 -0.77259803 -0.97845548
0.91361672 -0.77267635 -0.97862881
1.0623071 -0.77227247 -0.97456348
-0.36235332 -0.96162897 -0.96567452
0.61875236 -0.96162981 -0.96567333
-0.080770135 -0.9581691 -0.96195519
0.33713961 -0.95833308 -0.96189249
-0.13411513 -0.93101484 -0.9689405
0.39051351 -0.93101448 -0.96893859
-0.028340995 -0.92640018 -0.96213472
0.28483897 -0.92666066 -0.96226293
1.4014344 -0.91224021 -0.96819603
-0.55384922 -0.90106601 -0.96577692
-0.18924214 -0.90859818 -0.9606716
0.4455246 -0.90871829 -0.96068144
0.81024659 -0.90106541 -0.96577573
-0.2096727 -0.89210236 -0.96795243
0.46607202 -0.8921026 -0.96795231
1.3026221 -0.89320439 -0.9679842
-0.45131785 -0.88502264 -0.96173763
0.70738465 -0.88545048 -0.96117306
1.3498009 -0.88060403 -0.96421212
-0.14220414 -0.86179447 -0.96479452
0.040875688 -0.86632168 -0.96961582
0.39860272 -0.86179477 -0.96479523
0.054799438 -0.8312366 -0.96716499
0.20168713 -0.83109426 -0.96714711
-0.60744363 -0.82899976 -0.96241856
-0.36222619 -0.82884932 -0.96231019
-0.11701353 -0.82884884 -0.96230984
0.12819885 -0.82869792 -0.962201
0.37340987 -0.8286984 -0.96220136
0.61862093 -0.82869935 -0.96220183
0.86382657 -0.8285495 -0.96209335
1.1090366 -0.82854855 -0.96209288
1.3073245 -0.82558584 -0.96589136
1.3702958 -0.81165683 -0.96036774
0.88655782 -0.80199909 -0.96398389
0.89328259 -0.7811842 -0.9650079
0.97346926 -0.78313494 -0.96017718
-0.60404277 -0.96173275 -0.95863521
0.64123142 -0.96002072 -0.9587701
0.86044198 -0.96173429 -0.9586333
1.1009166 -0.96183658 -0.95163167
0.88243365 -0.95817083 -0.95065212
-0.40552732 -0.93125325 -0.95473623
0.6620115 -0.93139702 -0.95471668
0.97993863 -0.93612605 -0.95051652
1.1138792 -0.91010535 -0.95443475
-0.18739399 -0.90007532 -0.95051473
0.44393525 -0.89988863 -0.9503305
-0.21878219 -0.88847983 -0.95466912
0.47504157 -0.8883943 -0.95468438
0.66319919 -0.88648653 -0.95966804
0.98281866 -0.88270944 -0.95752645
-0.38437203 -0.86188424 -0.95776308
0.64077061 -0.86188447 -0.95776117
0.88172215 -0.86197287 -0.95076215
1.0114973 -0.85847884 -0.9521116
-0.22002786 -0.83296645 -0.95965505
-0.21748534 -0.83155662 -0.95296192
0.47519162 -0.83218765 -0.95627773
-0.28746682 -0.8079111 -0.95960009
0.54386342 -0.80791301 -0.95959985
1.3992243 -0.79221427 -0.95129341
1.3897606 -0.78553832 -0.95673251
1.3401858 -0.96193808 -0.94466436
-0.67428035 -0.93163204 -0.94065642
0.051419973 -0.93197477 -0.94971466
0.205055 -0.93182486 -0.9497745
0.93076134 -0.9317733 -0.94064069
1.3396879 -0.93996841 -0.94485986
0.80374479 -0.92694604 -0.9464801
0.98850739 -0.90589696 -0.94648182
-0.31615227 -0.89707851 -0.94157887
-0.30140471 -0.89733171 -0.94634706
-0.086603835 -0.89733124 -0.9463461
0.12820064 -0.89733171 -0.94634694
0.34300232 -0.89741313 -0.94646329
0.55780321 -0.89741266 -0.94646221
0.57252413 -0.89695466 -0.94172513
0.77260506 -0.8974129 -0.94646269
0.98740155 -0.89749384 -0.94657779
1.2022018 -0.89749455 -0.94657898
1.3806576 -0.89027071 -0.94572747
1.4170027 -0.89749384 -0.94657791
-0.72310096 -0.88851023 -0.94740069
-0.46163744 -0.87450248 -0.94383287
1.0261819 -0.87162685 -0.94811642
1.3362164 -0.87085831 -0.94997811
0.11242902 -0.86056519 -0.94772595
0.14396954 -0.86056578 -0.94772553
1.1214664 -0.86206102 -0.9437989
-0.21753573 -0.858248 -0.94087881
0.47390866 -0.85841125 -0.94094163
-0.22402883 -0.8355726 -0.94501776
0.48021805 -0.83599359 -0.94494581
0.77513242 -0.82614684 -0.94991601
-0.13980025 -0.78829837 -0.94992912
0.39605808 -0.78838336 -0.94994295
0.12520719 -0.96017104 -0.93348962
0.13121712 -0.96032667 -0.93351734
1.5782591 -0.9620409 -0.93773091
1.3168225 -0.927356 -0.93093801
0.70461571 -0.91070914 -0.93226159
-0.43211931 -0.90764028 -0.93092716
-0.32264718 -0.90669125 -0.93795252
0.57894945 -0.90680259 -0.93800884
0.68851817 -0.90764064 -0.93092632
1.1208432 -0.90227461 -0.93345797
-0.15351993 -0.89006329 -0.93343771
0.41017812 -0.89022624 -0.93350619
-0.67354369 -0.87279654 -0.93296778
0.92986447 -0.87263495 -0.93331796
-0.579656 -0.86470062 -0.93400854
1.0531118 -0.86695039 -0.93853146
0.7434175 -0.83187103 -0.93890023
0.0074731708 -0.8264432 -0.93425208
0.24897659 -0.82657307 -0.93418753
-0.42365384 -0.81874478 -0.93698603
0.040618107 -0.81079447 -0.93820167
0.21575741 -0.81068897 -0.93829769
0.68005162 -0.81874406 -0.93698579
1.2628248 -0.81190276 -0.93548286
-0.30964148 -0.79895914 -0.93582654
0.56614548 -0.79907823 -0.93592137
1.2368597 -0.7932837 -0.93891448
1.2649581 -0.79910398 -0.93109953
0.99167538 -0.78803355 -0.93600988
0.16170776 -0.76684064 -0.93016016
-0.15982556 -0.93581414 -0.92357999
0.4160831 -0.93553042 -0.92353195
1.0005884 -0.93288887 -0.92999518
1.1967264 -0.93200648 -0.9267199
0.9576534 -0.91785574 -0.92811424
1.1029205 -0.91158164 -0.92269272
-0.21926427 -0.90845704 -0.92144066
0.079915464 -0.90758121 -0.92962718
0.17638826 -0.90769237 -0.92968249
0.4756645 -0.90845823 -0.92144126
1.2279987 -0.90194649 -0.92421913
-0.31377023 -0.88559073 -0.92214954
0.57016951 -0.88559049 -0.92214847
0.83592123 -0.88058472 -0.92452538
0.85720515 -0.87177575 -0.9291209
0.65574312 -0.8606236 -0.92261517
-0.40971464 -0.85070854 -0.92888224
-0.066651344 -0.85834467 -0.92971098
0.32302183 -0.85818058 -0.92964768
1.0102389 -0.8321836 -0.92498207
-0.51557171 -0.82907706 -0.92003691
-0.33184475 -0.80844617 -0.9266479
0.5881263 -0.80832738 -0.92665637
-0.19204517 -0.79758513 -0.92844903
0.4484123 -0.79746294 -0.92830324
-0.31911105 -0.78573871 -0.92484164
0.11159593 -0.78636384 -0.92626238
0.14449137 -0.78678083 -0.92682004
0.57551122 -0.78573829 -0.924842
0.69591165 -0.78694201 -0.92480969
-0.031331688 -0.77435839 -0.9250676
0.28785127 -0.77443427 -0.92519039
0.75077093 -0.77567649 -0.9280566
0.8156575 -0.77234483 -0.92498982
0.095600657 -0.76659334 -0.92959046
1.460109 -0.93237621 -0.91292357
-0.11670327 -0.91851783 -0.91031981
0.37310064 -0.91851783 -0.9103204
0.76925999 -0.90788239 -0.91325724
0.86467534 -0.90920913 -0.9133395
-0.4154346 -0.8921026 -0.91044742
0.67179906 -0.89203417 -0.91032833
-0.64960289 -0.8846451 -0.91819513
-0.018199533 -0.88834268 -0.91261971
0.27459976 -0.88834316 -0.91261911
0.91446072 -0.88994205 -0.91720378
0.80432904 -0.87471557 -0.91329807
0.92247301 -0.86294645 -0.91775972
1.4650698 -0.86023283 -0.91027808
-0.61021215 -0.85827672 -0.91841602
0.86657858 -0.85811102 -0.91835272
-0.090689957 -0.83538306 -0.91779613
0.3468675 -0.83495903 -0.9178682
1.1066314 -0.83146167 -0.91588473
1.2743897 -0.83249313 -0.91120172
-0.2711423 -0.82712162 -0.91857511
0.52763575 -0.82686496 -0.91870314
0.10144752 -0.81925881 -0.91936862
0.15495044 -0.81925893 -0.91936833
1.5675403 -0.81002653 -0.91556931
-0.15225604 -0.80645394 -0.91539794
-0.072800726 -0.80123568 -0.91420686
0.32933456 -0.80105436 -0.91438758
0.40865472 -0.80645382 -0.91539758
-0.19681768 -0.79242462 -0.91889966
0.45318288 -0.79249138 -0.918782
0.83580077 -0.78983915 -0.91258752
0.97961646 -0.78507626 -0.91684216
-0.41456014 -0.77259815 -0.9106276
0.67091644 -0.7726773 -0.91080153
1.1525631 -0.77533567 -0.91799569
1.057766 -0.76696467 -0.91648096
-0.38810968 -0.96031934 -0.90834212
0.64453077 -0.96047509 -0.90837038
0.89938271 -0.91021335 -0.90975338
1.2473018 -0.91005754 -0.90542573
1.1430014 -0.88057959 -0.90568542
-0.44153589 -0.87521803 -0.90027177
-0.51675701 -0.84006202 -0.90337121
1.4578528 -0.83604413 -0.90157765
1.0418687 -0.82740915 -0.90326589
-0.46996117 -0.81962734 -0.90186834
0.72630793 -0.81976825 -0.90197182
1.3867291 -0.81838024 -0.9006747
-0.087482512 -0.79050612 -0.90362161
0.34414038 -0.79034626 -0.90368968
0.68771154 -0.7811842 -0.90697533
-0.18188399 -0.76035941 -0.90014553
-0.15855509 -0.93478131 -0.89601016
0.41480535 -0.93506718 -0.89605939
1.3722868 -0.9253853 -0.89159542
-0.20402122 -0.91902781 -0.89285791
0.46041811 -0.91902757 -0.89285707
-0.071154252 -0.89707851 -0.8904258
0.32752609 -0.89695466 -0.89057237
0.8942132 -0.89807892 -0.8959282
1.025612 -0.89879757 -0.89953464
0.78956872 -0.88707823 -0.89706004
-0.57840341 -0.87283278 -0.89539707
0.0059066415 -0.87422901 -0.89898884
0.25049073 -0.87422925 -0.89898944
1.1648475 -0.86068207 -0.89763594
0.12113255 -0.83241123 -0.89642453
0.13534176 -0.83255976 -0.8964839
0.92873043 -0.83447498 -0.89017993
0.0032531321 -0.81058264 -0.89403093
0.2530784 -0.81090093 -0.8937403
0.12568498 -0.79990917 -0.8938272
0.13071311 -0.79990846 -0.89382672
1.3906456 -0.79095197 -0.89583099
-0.6553688 -0.76356614 -0.89533067
0.43749297 -0.76020491 -0.89930189
0.91176659 -0.76356637 -0.89533222
1.1551613 -0.96062344 -0.88335454
-0.30982846 -0.93171382 -0.88582337
0.56630582 -0.93156409 -0.88588274
0.91731906 -0.91070986 -0.88785207
-0.30877307 -0.9008646 -0.88319796
-0.0059252977 -0.90604699 -0.88620299
0.2623238 -0.90604711 -0.88620347
0.56536984 -0.90114069 -0.88347155
1.1716707 -0.89027095 -0.88732111
1.3420686 -0.8913641 -0.88073409
-0.54830921 -0.86690998 -0.88768971
0.94571918 -0.86044753 -0.8850385
-0.70463502 -0.84033 -0.88424873
1.3704172 -0.83681977 -0.88675469
0.96351737 -0.81118745 -0.88976955
-0.29626411 -0.78570193 -0.88518447
-0.08403261 -0.78570211 -0.88518375
0.12820022 -0.78574592 -0.88505256
0.34043467 -0.78578997 -0.88492024
0.55266798 -0.78578985 -0.8849206
0.76490688 -0.78583336 -0.88479
0.97714263 -0.78583372 -0.88478893
1.1893841 -0.78587705 -0.88465905
1.4016199 -0.78587741 -0.88465786
0.96101546 -0.96002722 -0.87057018
1.3299874 -0.95865548 -0.87697816
0.83625102 -0.92568576 -0.87594783
-0.54330039 -0.91091204 -0.87647307
0.79959023 -0.91079378 -0.87646335
1.0302597 -0.91938961 -0.875718
-0.29757792 -0.88564509 -0.87222105
-0.084689096 -0.88560039 -0.87209034
0.1282001 -0.88559991 -0.87208903
0.34109068 -0.88555479 -0.87195754
0.55398464 -0.88550973 -0.87182611
0.76687741 -0.88551009 -0.87182695
0.97977388 -0.88546461 -0.87169415
1.1926683 -0.88546461 -0.87169391
1.4055674 -0.88541931 -0.87156165
-0.59855616 -0.86977386 -0.87005222
1.0640938 -0.83347875 -0.87758893
1.3532953 -0.81002557 -0.87083828
0.91257322 -0.8075527 -0.87901336
1.5120548 -0.80548501 -0.87207317
-0.43675318 -0.79758608 -0.87735754
0.69312048 -0.79746342 -0.87721121
1.2637432 -0.7913394 -0.87623918
0.015362322 -0.78875649 -0.87842363
0.24103647 -0.78875673 -0.87842244
-0.45881253 -0.77651823 -0.87758696
0.71463132 -0.77689344 -0.87818515
-0.53669548 -0.95849454 -0.86559683
0.79309535 -0.95849276 -0.86559814
-0.39285135 -0.93248951 -0.86700809
0.64932096 -0.93263561 -0.86695004
1.0003823 -0.93445218 -0.86803716
1.3117509 -0.9363488 -0.86531192
-0.049884319 -0.92624032 -0.86060774
0.30633456 -0.92611086 -0.86054391
0.68491566 -0.91021359 -0.86497521
1.0981908 -0.9071551 -0.8650614
0.9343493 -0.89020991 -0.86715209
-0.43025118 -0.87271613 -0.86515814
0.68660849 -0.87263495 -0.86533356
0.49631622 -0.80018181 -0.86363441
0.85874534 -0.8085655 -0.86757934
1.0948457 -0.80621052 -0.86418146
1.1281908 -0.80494636 -0.86971003
-0.30074424 -0.79726928 -0.86633557
-0.2397745 -0.79999697 -0.86382008
-0.086272135 -0.79726923 -0.86633557
0.12819992 -0.79726917 -0.86633569
0.34267116 -0.79718864 -0.86645293
0.5571422 -0.79718935 -0.86645174
0.65854871 -0.79249263 -0.86138451
0.7716127 -0.7971887 -0.86645281
0.98607862 -0.79710865 -0.86656874
1.2005489 -0.79710913 -0.86656791
1.4150176 -0.79710907 -0.86656803
0.85580766 -0.78724158 -0.86646044
0.96040314 -0.78587222 -0.86948901
-0.29119915 -0.7793752 -0.86714417
0.54692215 -0.77956259 -0.86686808
0.0031658411 -0.95833153 -0.85415387
0.25323057 -0.95833224 -0.85415244
-0.19464219 -0.89925361 -0.85367298
0.45114619 -0.8991335 -0.85376608
0.87756467 -0.89203489 -0.85282302
-0.49717623 -0.87665993 -0.85175252
-0.24348435 -0.87894076 -0.85261172
0.49934137 -0.87878519 -0.8523891
0.75287771 -0.87619936 -0.85247052
-0.50334716 -0.86383188 -0.85982996
-0.17266881 -0.86050612 -0.85996115
0.42906868 -0.86050725 -0.85996151
-0.48324922 -0.85921091 -0.8563813
0.73844004 -0.85946083 -0.85510582
0.8157782 -0.83622473 -0.85944313
1.5581157 -0.82714379 -0.85626161
-0.66795081 -0.80944759 -0.85799944
-0.428514 -0.80703235 -0.85637081
-0.29664648 -0.8008424 -0.85259676
0.55304593 -0.80084205 -0.85259688
0.68491435 -0.80703306 -0.85637176
-0.18506294 -0.78412414 -0.85687667
0.44146138 -0.7841239 -0.85687476
1.0831529 -0.78166652 -0.85296965
-0.18639386 -0.96017706 -0.84545571
0.44281983 -0.96002156 -0.84542763
-0.28965724 -0.95800549 -0.84270751
0.54599607 -0.95833308 -0.84258306
-0.21746314 -0.92639995 -0.84525061
0.47391015 -0.92653036 -0.84531593
1.1300223 -0.91071057 -0.84344262
-0.73325235 -0.89431655 -0.84386104
0.90216899 -0.89173579 -0.84713322
0.7963016 -0.88275862 -0.84241647
0.93615419 -0.88057971 -0.84729362
1.0304217 -0.88518095 -0.8481977
1.0522802 -0.88811225 -0.84695631
-0.62587166 -0.87895495 -0.84167802
1.1394447 -0.87103552 -0.84644556
1.116151 -0.8255865 -0.8477391
-0.40309715 -0.81046009 -0.84333658
-0.20922767 -0.81058407 -0.84966552
0.46556264 -0.81090081 -0.8493759
0.65949541 -0.81046104 -0.84333467
-0.11434412 -0.80841893 -0.8412571
-0.025572866 -0.80784148 -0.84869421
0.28187683 -0.80773234 -0.84875029
0.37065089 -0.80852747 -0.84120131
1.0678452 -0.80199867 -0.84860682
1.2099206 -0.79293215 -0.84834027
-0.22565086 -0.78113902 -0.84920466
-0.092907488 -0.78232372 -0.84388524
0.34944728 -0.78240955 -0.8439573
0.48217982 -0.78120685 -0.84881002
0.78759325 -0.78313494 -0.84529948
-0.17181848 -0.77267683 -0.84297192
0.42821556 -0.7726773 -0.84297252
1.0918725 -0.95817059 -0.8310101
-0.49737936 -0.9360407 -0.83770311
0.75364107 -0.93575877 -0.83765519
0.9917897 -0.92694652 -0.83026236
-0.0019700229 -0.90007484 -0.83250368
0.980151 -0.90439957 -0.83997619
1.0025486 -0.9084785 -0.83904451
0.082526326 -0.89695513 -0.83941853
0.17384373 -0.89707875 -0.83927262
0.25850889 -0.89988875 -0.83231866
-0.25515774 -0.88357359 -0.83524972
0.051614612 -0.88695669 -0.83625245
0.20447293 -0.8865329 -0.8368094
0.51155514 -0.88357317 -0.83524829
1.1743605 -0.88366669 -0.8316654
1.2189587 -0.88456672 -0.83585662
1.2704194 -0.87416613 -0.83030695
-0.084850848 -0.86072075 -0.83498728
0.34127557 -0.86056447 -0.8350147
-0.54803485 -0.85847908 -0.83382642
0.80443293 -0.85848111 -0.8338269
-0.31565064 -0.83531666 -0.83262932
-0.23783422 -0.8321476 -0.83268476
-0.093727425 -0.83545303 -0.83256149
0.0055456758 -0.83533704 -0.83166742
0.12820008 -0.83545291 -0.83256161
0.2507109 -0.8356182 -0.83161771
0.3501268 -0.8354522 -0.83256209
0.49423361 -0.83214796 -0.83268368
0.5720551 -0.83558935 -0.8324939
0.79398346 -0.83558953 -0.83249378
1.0159111 -0.8355875 -0.83249497
1.2378453 -0.8357259 -0.83242595
1.4597746 -0.83572471 -0.83242667
-0.47711623 -0.82392859 -0.8350758
-0.32855386 -0.82588762 -0.83257371
0.58505845 -0.82614654 -0.83244407
1.5287929 -0.8182534 -0.83865988
-0.39387 -0.80870801 -0.83280277
0.76022655 -0.80920237 -0.83383501
1.2424644 -0.80688763 -0.83057708
0.90000576 -0.79044622 -0.83359051
1.1820662 -0.79095227 -0.83753729
0.90009528 -0.7806443 -0.83064795
-0.072681546 -0.96016997 -0.82044518
0.32910442 -0.96032667 -0.82047403
0.93125534 -0.93114889 -0.82141244
-0.23514876 -0.9101131 -0.82950842
0.47044703 -0.91021335 -0.82019597
0.49154723 -0.91011298 -0.82950807
-0.214099 -0.9099983 -0.82000095
0.96268523 -0.89027095 -0.82891452
-0.022764951 -0.88191748 -0.82191223
0.27930343 -0.88183105 -0.82198298
0.92023307 -0.88545144 -0.82570702
-0.0099008083 -0.85824978 -0.82226795
0.26627338 -0.85841197 -0.82233006
1.1390488 -0.81002522 -0.82610619
0.082896382 -0.80713016 -0.82223022
0.17350337 -0.80712885 -0.8222295
1.1433208 -0.80986714 -0.82659018
-0.68149388 -0.7977072 -0.82640958
0.93782949 -0.79746413 -0.8261193
1.2542371 -0.78359085 -0.8269397
1.5037602 -0.92722845 -0.81531459
0.016377449 -0.9000482 -0.81247771
0.24012274 -0.90016848 -0.81238312
1.302369 -0.90227532 -0.81792927
1.1271231 -0.87916195 -0.81788564
0.85255265 -0.86047071 -0.81022751
-0.27486289 -0.85834324 -0.81076944
0.53123087 -0.85818201 -0.81070864
-0.45859641 -0.83322465 -0.81469154
0.71506637 -0.83307767 -0.81463343
0.059990764 -0.82657355 -0.81738734
0.19645751 -0.82644367 -0.81745291
0.9726578 -0.80175704 -0.81211179
0.8361938 -0.79183447 -0.81787097
1.0777731 -0.79910439 -0.81196773
0.75704014 -0.78573865 -0.81264961
1.1601697 -0.77952415 -0.81438357
-0.038114965 -0.93223202 -0.80334055
0.071273446 -0.9354431 -0.80952734
0.18498194 -0.93515861 -0.80947596
0.29451317 -0.93223202 -0.80333972
-0.49583238 -0.88559073 -0.8096292
-0.014216691 -0.88859153 -0.80873477
0.27061477 -0.88859212 -0.80873585
0.75223112 -0.88559037 -0.80962777
0.82993174 -0.88003385 -0.80831814
-0.58392054 -0.86633587 -0.80937374
0.84125417 -0.86695057 -0.80759567
1.2215728 -0.85821354 -0.80593109
-0.32508379 -0.83500183 -0.80326462
0.58133155 -0.83471715 -0.80331469
0.71554577 -0.82686508 -0.8025682
-0.64541924 -0.81248659 -0.80319077
-0.63301212 -0.81874478 -0.80759537
0.67804688 -0.81090081 -0.80501145
0.8894099 -0.8187443 -0.80759537
0.86388391 -0.79255873 -0.80387217
1.0971951 -0.79858124 -0.80037963
-0.52807617 -0.78772408 -0.80358928
0.7842567 -0.78803295 -0.80400038
1.2510539 -0.78506649 -0.80067527
1.1876764 -0.77092898 -0.80829436
0.84189892 -0.96047461 -0.79562354
1.3427079 -0.91060269 -0.79893428
-0.062567145 -0.90691131 -0.79318005
0.31885046 -0.906789 -0.79322124
1.083297 -0.89196682 -0.79519856
-0.44083345 -0.88469398 -0.79593223
-0.26076022 -0.88648605 -0.79007471
0.51715946 -0.88648617 -0.79007614
0.69704604 -0.88525754 -0.79434884
1.4818364 -0.88252878 -0.7951265
-0.57814085 -0.87297189 -0.79307395
-0.18699916 -0.87271601 -0.79717511
0.44339603 -0.87271589 -0.79717541
1.14632 -0.87521899 -0.79824406
1.2662015 -0.860232 -0.79667473
1.075364 -0.85811245 -0.79908454
-0.50832814 -0.83690429 -0.79823828
-0.57924759 -0.82433343 -0.79284608
-0.053089738 -0.81926024 -0.79079366
0.30948681 -0.81925976 -0.79079407
-0.2559486 -0.80132771 -0.79750961
-0.094249338 -0.80972111 -0.79616302
0.35053718 -0.80983794 -0.79615259
0.51254559 -0.80105472 -0.79778504
-0.065528721 -0.78688538 -0.79334587
-0.020124225 -0.78116184 -0.79103947
0.27660728 -0.78120703 -0.79077584
0.32161114 -0.78646863 -0.79279143
1.282522 -0.95987701 -0.78187501
0.6507774 -0.93483305 -0.78081155
1.2355223 -0.93313813 -0.78585184
0.98010284 -0.92959636 -0.78931236
-0.57979172 -0.91812152 -0.78779972
-0.32622623 -0.91851723 -0.78082794
0.58268386 -0.91837323 -0.78093255
0.077829242 -0.9094215 -0.78180051
0.17856878 -0.90942091 -0.78179979
-0.16247174 -0.89695466 -0.78826571
0.41884029 -0.89707804 -0.78812063
0.83817196 -0.89879853 -0.78024274
0.7293061 -0.88057995 -0.78890198
-0.0087916255 -0.87172931 -0.78500915
0.26454765 -0.8715452 -0.78517413
1.1401796 -0.86300403 -0.78298217
1.3611426 -0.86052859 -0.78554082
1.172137 -0.82963735 -0.78760123
1.2287152 -0.82741022 -0.7877875
0.92477441 -0.809919 -0.78147101
-0.52039289 -0.78535032 -0.78977144
0.77663994 -0.78526199 -0.78975618
1.1801133 -0.77642834 -0.78260291
-0.58929861 -0.76755911 -0.78776264
0.84654474 -0.76701885 -0.78615272
1.113755 -0.96115941 -0.77221572
1.3520126 -0.9606232 -0.77090299
0.69718969 -0.92999297 -0.77572656
1.1799166 -0.92525524 -0.77260411
0.25598094 -0.91021335 -0.7754178
-0.41052663 -0.90106589 -0.77185416
0.00037048757 -0.9099983 -0.77522206
0.6669234 -0.90106517 -0.77185225
0.753658 -0.89033979 -0.7706275
1.4907106 -0.88388002 -0.77716255
0.74737614 -0.86044824 -0.77173454
0.92771822 -0.86787987 -0.771079
1.3368181 -0.86108732 -0.7713877
1.2565428 -0.85375607 -0.77656025
-0.7842176 -0.84590828 -0.77505279
1.5101646 -0.84833586 -0.77367836
1.1482251 -0.83645463 -0.77473372
1.1681517 -0.83408517 -0.77442002
0.88841259 -0.82997179 -0.77403355
-0.26317197 -0.81976873 -0.77420151
0.51957041 -0.8197692 -0.77420193
-0.5345965 -0.80564433 -0.77536577
0.79099602 -0.80564553 -0.77536792
1.1685841 -0.80920672 -0.777031
1.4399145 -0.80761802 -0.77333456
0.97344506 -0.79088372 -0.77936578
1.1569777 -0.79823232 -0.77963603
-0.080434851 -0.78889608 -0.77871853
0.33683497 -0.78889656 -0.77871996
0.0709261 -0.77275586 -0.77531612
0.18551408 -0.77267683 -0.77514201
0.86463678 -0.96110499 -0.76558053
1.1209041 -0.95701915 -0.76458788
-0.31803602 -0.93527246 -0.76847458
-0.16088945 -0.93024194 -0.76229596
-0.094918907 -0.93527269 -0.76847482
0.12820087 -0.93527365 -0.76847541
0.35131699 -0.93527269 -0.76847482
0.4172886 -0.93024099 -0.76229906
0.57443738 -0.93513441 -0.76840603
0.79755735 -0.93513727 -0.7684077
1.0206777 -0.93513584 -0.76840699
1.2438016 -0.93499756 -0.76833844
-0.60792655 -0.92844355 -0.7637316
-0.36254734 -0.92859578 -0.76362371
-0.11717452 -0.92859626 -0.76362348
0.12819968 -0.92874777 -0.76351607
0.37357092 -0.9287473 -0.76351631
0.61894208 -0.92874682 -0.76351655
0.86430943 -0.92889857 -0.76340866
1.1096797 -0.92889929 -0.76340818
0.0041820407 -0.91902709 -0.76418185
0.25216138 -0.91888511 -0.76428461
-0.49223241 -0.90086389 -0.76643682
0.74882531 -0.90114069 -0.76671374
0.8526479 -0.90589672 -0.76265669
1.2680888 -0.9050886 -0.76972246
1.3810045 -0.89328307 -0.76312435
0.98409164 -0.8805846 -0.76951116
1.2396058 -0.88552171 -0.76822543
1.0871553 -0.86117995 -0.76473868
-0.600299 -0.8317315 -0.76824957
-0.35130849 -0.83044535 -0.76061988
0.60770738 -0.83044583 -0.76062202
0.8566969 -0.83173174 -0.76825064
0.89053184 -0.81090105 -0.76064658
-0.62684798 -0.7794764 -0.76796818
-0.3751688 -0.77956975 -0.76813799
-0.12348546 -0.77957046 -0.76813895
-0.047077104 -0.77238965 -0.76890594
0.12819956 -0.77957046 -0.76813871
0.30267495 -0.7726118 -0.76911253
0.37988484 -0.77966464 -0.76830918
0.63156903 -0.77966487 -0.76830965
0.88326031 -0.77975821 -0.76847929
1.1349471 -0.77975893 -0.76848024
1.1286157 -0.76345497 -0.76085925
-0.36033589 -0.96121085 -0.75896156
-0.1136958 -0.9613151 -0.75237739
0.37009442 -0.96131545 -0.75237811
0.61673474 -0.96121049 -0.75896132
0.76208103 -0.96002781 -0.75692904
1.1228524 -0.95865452 -0.75865257
1.0881219 -0.93612653 -0.75260323
-0.38848549 -0.92581618 -0.75777483
0.64493906 -0.92568493 -0.75770992
-0.18795839 -0.90669137 -0.75571144
0.44426164 -0.90680212 -0.75576848
0.023459136 -0.88680339 -0.7580632
0.23279399 -0.88689119 -0.75804913
-0.05132911 -0.87584603 -0.75859678
0.30725974 -0.87571156 -0.75856513
-0.58242106 -0.86143374 -0.7581414
-0.33529323 -0.86152369 -0.75156057
-0.070422687 -0.86640781 -0.7511431
0.32758951 -0.86619228 -0.75161409
0.59163976 -0.86136299 -0.75154698
0.83876556 -0.86127126 -0.75812471
-0.10614246 -0.83282042 -0.7511186
0.36254138 -0.83281922 -0.75111777
1.0851034 -0.8202709 -0.75781572
-0.46216804 -0.81015557 -0.7550258
-0.29388419 -0.78701055 -0.75548756
-0.055835731 -0.78688735 -0.75359476
0.3120892 -0.78680128 -0.75358331
0.55017304 -0.78694201 -0.75556898
-0.088337839 -0.77578026 -0.75521076
0.34427053 -0.77590996 -0.75517702
0.99772865 -0.77538204 -0.75556648
0.88477856 -0.76832956 -0.75457126
-0.57294428 -0.99993128 -0.74236643
-0.3392294 -0.99993104 -0.74236643
-0.10551615 -0.99992979 -0.74236643
0.1281995 -0.99993002 -0.74236643
0.36191177 -0.99993038 -0.74236643
0.59562665 -0.99993014 -0.74236643
0.82934076 -0.99992937 -0.74236643
1.0630546 -0.99993074 -0.74236643
0.12470591 -0.96142024 -0.74582875
0.13169298 -0.96142071 -0.74582732
-0.32899201 -0.95849466 -0.74694592
0.58536422 -0.95833093 -0.74700618
0.11622787 -0.93062991 -0.74899077
0.14017087 -0.93062955 -0.74899173
0.1161741 -0.92598021 -0.74292159
0.14032418 -0.92624056 -0.74305254
-0.5670113 -0.91953182 -0.74774301
0.82335901 -0.9193902 -0.74784577
1.4492713 -0.91235566 -0.74967122
-0.38756335 -0.90516901 -0.74582446
-0.35176456 -0.90856791 -0.74234211
-0.3392294 -0.900069 -0.74236643
-0.10551615 -0.90007025 -0.74236643
0.042848945 -0.90769225 -0.74899673
0.1281995 -0.90007001 -0.74236643
0.21336102 -0.90747088 -0.74888533
0.36191177 -0.90006965 -0.74236643
0.59562665 -0.90006989 -0.74236643
0.60798049 -0.90834785 -0.74223083
0.64384168 -0.90529168 -0.74578458
0.82934076 -0.90007067 -0.74236643
1.0630546 -0.9000693 -0.74236643
1.2967695 -0.90006942 -0.74236643
1.3114367 -0.90918314 -0.74867558
1.5304835 -0.90007025 -0.74236643
-0.16187188 -0.88834351 -0.74578071
0.41827115 -0.88834327 -0.74577904
-0.089420065 -0.86161518 -0.74501455
0.025154173 -0.86050749 -0.74695402
0.2312454 -0.86050797 -0.7469545
0.34581822 -0.86161357 -0.74501622
-0.33265436 -0.83557272 -0.74629492
-0.073391452 -0.83077133 -0.74733162
0.32979065 -0.83077234 -0.74733281
0.5889138 -0.83585328 -0.74624604
1.4611961 -0.82514977 -0.74430752
0.036742374 -0.80908877 -0.74822515
0.21965773 -0.80908948 -0.74822813
0.31113842 -0.80018103 -0.74578196
1.2857096 -0.80758166 -0.74808979
-0.59843111 -0.79833913 -0.74947912
-0.05459854 -0.79999745 -0.74596667
0.85480589 -0.79845893 -0.74962151
1.0692204 -0.79262543 -0.74635839
-0.36235374 -0.9616304 -0.73282731
-0.11944057 -0.96152586 -0.7393111
0.0120157 -0.96017766 -0.73211437
0.24440968 -0.96002144 -0.73208565
0.37583947 -0.96152645 -0.73930991
0.61875188 -0.96162826 -0.73282635
0.044922709 -0.95816761 -0.73523414
0.21144712 -0.9583326 -0.73517263
-0.13402849 -0.93087196 -0.73583651
-0.063739538 -0.93197358 -0.73903954
0.3202135 -0.93182546 -0.73909938
0.39051396 -0.93101519 -0.73582006
0.041513979 -0.91021359 -0.7306397
-0.13957967 -0.90859818 -0.73331112
0.21484073 -0.90999806 -0.73044252
0.39597869 -0.90859783 -0.73331219
0.99597383 -0.90921009 -0.73568773
1.0859771 -0.90194672 -0.7320559
-0.40747139 -0.89695537 -0.73711163
0.66383898 -0.89707875 -0.73696673
1.2890599 -0.8919661 -0.7376911
-0.40724021 -0.88619888 -0.73600912
-0.26592606 -0.88065237 -0.73090744
0.52245843 -0.88057983 -0.73050821
-0.14220414 -0.86179447 -0.73202264
0.10118975 -0.86170506 -0.73850262
0.15520933 -0.86170375 -0.73850143
0.39860243 -0.86179572 -0.73202169
0.054799467 -0.83123666 -0.73419356
0.20159861 -0.83123749 -0.73419356
-0.23756197 -0.80779284 -0.7305789
0.49384737 -0.80791241 -0.7306174
0.7105304 -0.8099184 -0.73673987
1.2491331 -0.8019985 -0.73322892
-0.45546901 -0.79895782 -0.73851192
0.71208411 -0.79919851 -0.73869795
1.3151121 -0.79320586 -0.73439801
-0.34474611 -0.78280127 -0.73121035
0.071033888 -0.78120714 -0.73274189
0.18544677 -0.78116184 -0.73300678
0.60163379 -0.78308725 -0.7305333
1.3059901 -0.78553867 -0.73741651
-0.19303206 -0.77435815 -0.73728985
0.44967806 -0.77451086 -0.7375322
-0.60404283 -0.96173286 -0.72637451
0.8604421 -0.96173465 -0.72637355
-0.49851739 -0.95800513 -0.72339606
0.75485438 -0.95833451 -0.72327209
-0.63072008 -0.93288887 -0.72241008
-0.40552825 -0.9312548 -0.7227993
-0.26895565 -0.93567348 -0.72378254
0.52528441 -0.93553114 -0.72375661
0.66201049 -0.93139547 -0.72278333
0.88711733 -0.93288815 -0.72240841
-0.40658426 -0.92640066 -0.72836792
0.66303074 -0.92652965 -0.72843254
1.3775058 -0.91005707 -0.72925192
-0.23395473 -0.89006388 -0.72286022
0.4906109 -0.89022613 -0.72292978
-0.49823567 -0.88556856 -0.72408992
-0.35297865 -0.883053 -0.72787219
-0.21864182 -0.88839358 -0.72275507
0.47504127 -0.88839406 -0.72275364
0.60978645 -0.88280749 -0.72730678
0.056296334 -0.8726353 -0.72936541
0.20014437 -0.87271601 -0.7291919
-0.38437217 -0.86188376 -0.72557437
-0.28215671 -0.86071998 -0.72227645
0.53860289 -0.86041003 -0.72233331
0.64077079 -0.86188376 -0.7255739
1.2584248 -0.8674438 -0.72974253
-0.72392714 -0.85940826 -0.7293666
0.98049754 -0.85952222 -0.72860801
-0.2174859 -0.83155572 -0.72117496
0.47388461 -0.8315556 -0.72117233
0.92497718 -0.82558703 -0.72958684
1.2086256 -0.82586503 -0.7251538
0.76486826 -0.79088372 -0.72107339
-0.39021999 -0.77559888 -0.72503459
0.64676452 -0.77563763 -0.72497714
1.1009165 -0.96183598 -0.71995437
1.3401859 -0.9619382 -0.71356833
1.1797894 -0.9268167 -0.71397924
0.1834555 -0.90007532 -0.7144931
-0.28815275 -0.89054775 -0.71258271
0.073149323 -0.89979625 -0.71421331
0.54467273 -0.89033967 -0.71222079
-0.58829826 -0.88832045 -0.71447849
0.84447789 -0.88800704 -0.7148875
-0.1561653 -0.87422806 -0.71078348
0.41268593 -0.87415063 -0.71090436
0.88172215 -0.86197287 -0.71915853
1.1214664 -0.86206079 -0.71277559
-0.34097129 -0.85847944 -0.71554136
0.59736818 -0.85847956 -0.71554035
0.01903522 -0.83524215 -0.71721983
0.23729014 -0.83510053 -0.7172451
-0.13853306 -0.82601631 -0.71503741
0.39498436 -0.82614756 -0.71497095
1.1030161 -0.81090105 -0.71628207
1.310616 -0.81178862 -0.71716982
-0.13965809 -0.78838408 -0.7184087
-0.12801939 -0.78875613 -0.7119208
0.38441676 -0.78875667 -0.71192032
0.3960579 -0.78838348 -0.71840775
-0.3553049 -0.76033366 -0.71843815
-0.01521083 -0.76651073 -0.71207458
0.27252376 -0.76675785 -0.71263385
0.61077654 -0.76015347 -0.71746141
-0.2705704 -0.96017092 -0.70740128
0.52699172 -0.96032679 -0.70743072
-0.67427993 -0.93163145 -0.70989561
0.93067896 -0.93163216 -0.7098937
1.1510285 -0.91158164 -0.70244926
-0.38216555 -0.90776277 -0.70167184
0.6384505 -0.90764046 -0.7017113
1.4838352 -0.90218425 -0.7023083
1.075725 -0.89020932 -0.70297587
-0.0058673024 -0.88642728 -0.70312977
0.26194972 -0.88685 -0.70257759
-0.44320741 -0.87483597 -0.70950061
0.69989759 -0.87475562 -0.70938551
1.4311956 -0.8646788 -0.70634544
0.058637977 -0.85841268 -0.7037183
0.19773316 -0.85825002 -0.70365691
-0.48693401 -0.83201343 -0.70830107
0.74341768 -0.83187068 -0.7082839
1.2228718 -0.83146119 -0.70323038
-0.12899482 -0.82657266 -0.70058864
0.38544184 -0.82644415 -0.70065379
0.93857032 -0.78573859 -0.70045805
-0.05718483 -0.77267647 -0.70731258
0.31367174 -0.77283442 -0.70765907
-0.048242748 -0.93492496 -0.69436276
0.3045674 -0.93506908 -0.69438899
1.1967263 -0.93200636 -0.69711852
1.041698 -0.89795804 -0.69661504
0.93429464 -0.88559085 -0.69710791
0.81921244 -0.87186843 -0.6956172
1.0493408 -0.86047083 -0.69781184
-0.48307168 -0.85834396 -0.69183016
0.73944008 -0.85818082 -0.69176853
1.0102388 -0.83218384 -0.69552565
-0.67155212 -0.82568789 -0.69372267
-0.23993608 -0.8101325 -0.69180983
-0.28211659 -0.80832875 -0.69952536
0.27529824 -0.80002707 -0.69842786
0.49628556 -0.80991876 -0.69200736
0.53863066 -0.80844599 -0.6995157
-0.35602105 -0.79833865 -0.69886595
-0.16777754 -0.79050583 -0.69340771
-0.018796682 -0.7999087 -0.69833517
0.42443475 -0.79034609 -0.69347733
0.61239499 -0.79845989 -0.69900966
0.89058661 -0.79910326 -0.69283736
1.2303904 -0.78166664 -0.69893199
-0.5207504 -0.77207816 -0.6924082
-0.29989529 -0.77659333 -0.69329655
0.55582654 -0.77689308 -0.69376981
0.77764457 -0.77221149 -0.69237703
1.0392689 -0.96047533 -0.68287587
1.460109 -0.93237621 -0.68447256
-0.17295307 -0.91021407 -0.68586165
0.42931026 -0.90999806 -0.68566358
0.71931052 -0.90776277 -0.68403459
-0.65250278 -0.89683187 -0.68610317
0.90883631 -0.89707851 -0.68581408
-0.65792656 -0.88985717 -0.68841136
0.70684075 -0.88707906 -0.68047953
0.91446131 -0.88994241 -0.68839467
-0.62821496 -0.87945533 -0.68362951
-0.37608147 -0.87935925 -0.6838004
-0.12394191 -0.87935972 -0.68379968
0.12819742 -0.87926447 -0.6839692
0.38033986 -0.8792634 -0.68397087
0.63248205 -0.87926364 -0.68397063
0.88462645 -0.87916863 -0.68413961
1.1367705 -0.87916815 -0.68414032
1.0673655 -0.86038929 -0.68304193
1.2621057 -0.85392535 -0.68514466
0.0066117644 -0.8324123 -0.68691802
0.24978596 -0.83241075 -0.68691754
0.81803364 -0.83447468 -0.68766814
1.3800768 -0.83950269 -0.68148625
0.90340877 -0.82699406 -0.68636858
-0.43916386 -0.80132711 -0.68090594
-0.20310047 -0.8064543 -0.68262798
0.45937932 -0.80633199 -0.68258786
0.69575799 -0.80105412 -0.68118298
0.9591341 -0.80621028 -0.68055707
1.3751564 -0.8054862 -0.68683994
1.2745882 -0.79262608 -0.68896145
-0.57926518 -0.78992325 -0.68418038
0.8357994 -0.78983992 -0.68416655
-0.42556059 -0.93171418 -0.67409921
0.68203926 -0.93156242 -0.67415833
-0.059039049 -0.88067627 -0.67264771
0.31565198 -0.88055587 -0.67198169
-0.37222055 -0.86644739 -0.67810857
0.62930906 -0.8668946 -0.67682081
-0.65810394 -0.85921115 -0.67345041
0.91301525 -0.85951638 -0.67190558
-0.6911419 -0.84119636 -0.67409873
0.95124388 -0.83347803 -0.67113727
1.4155626 -0.82740963 -0.67230999
1.0987682 -0.8187443 -0.67820483
1.3154997 -0.81090069 -0.67191815
-0.29406822 -0.80714297 -0.67426902
0.55027092 -0.80692202 -0.67438269
-0.32066199 -0.78772444 -0.67158401
-0.13453989 -0.78120691 -0.67471009
0.39101928 -0.78116161 -0.67497545
0.57676399 -0.78813541 -0.67212749
-0.39176822 -0.77937531 -0.67044407
0.64749545 -0.77956241 -0.67016238
1.0830626 -0.95987511 -0.66793311
0.88908744 -0.93445194 -0.6644308
1.4194331 -0.93634939 -0.66831547
1.1883366 -0.90927386 -0.66070473
-0.3942599 -0.89889175 -0.66104198
0.65073168 -0.89879757 -0.66094738
1.1280034 -0.89788949 -0.66136229
1.0703529 -0.88463807 -0.66350377
-0.33778495 -0.87650621 -0.66716713
-0.043109164 -0.87271577 -0.66120869
0.29955089 -0.87263483 -0.6613822
0.59383243 -0.87627625 -0.66752172
1.1145476 -0.8741166 -0.66678876
-0.48101422 -0.85946524 -0.66038853
0.92389894 -0.8362239 -0.66164476
-0.84753454 -0.82927239 -0.66273034
-0.60360134 -0.82927155 -0.66272986
-0.35966825 -0.82927072 -0.66272938
-0.11573358 -0.82912076 -0.66262293
0.12819885 -0.82912219 -0.66262376
0.37212849 -0.82897294 -0.66251791
0.61605996 -0.82897305 -0.66251802
0.85998881 -0.8289727 -0.66251779
-0.26112908 -0.81925952 -0.66221756
0.51752752 -0.81926024 -0.66221821
1.0116845 -0.81107211 -0.66974968
-0.24661201 -0.80841875 -0.66229212
0.10782436 -0.80784154 -0.66820073
0.14847961 -0.80773228 -0.66825682
0.50291854 -0.80852807 -0.66223502
-0.29977185 -0.79068053 -0.6631422
0.55629051 -0.79088438 -0.66277939
1.0411015 -0.7904461 -0.66974145
-0.27882183 -0.93248713 -0.65840185
0.53529322 -0.93263525 -0.65834486
0.98748827 -0.92525548 -0.65367711
-0.59178734 -0.9109118 -0.65449333
-0.53581047 -0.91837299 -0.65143913
0.79220849 -0.91837287 -0.65143955
0.84818554 -0.9109112 -0.6544919
-0.056821346 -0.90604734 -0.6531933
0.31310239 -0.90616918 -0.65315467
-0.34063971 -0.89925408 -0.6561296
-0.079210222 -0.89047855 -0.65405631
0.33568746 -0.89033967 -0.65381402
0.59725058 -0.89901286 -0.65631509
1.3420688 -0.89136434 -0.65496457
-0.34458914 -0.87897968 -0.65518516
0.60031253 -0.87878507 -0.65490282
-0.29263204 -0.86044711 -0.65842992
0.54903191 -0.86044627 -0.65843105
-0.59691542 -0.85160232 -0.65653896
0.73763621 -0.85960776 -0.65944314
1.4099588 -0.83383846 -0.65751827
-0.6062783 -0.80767298 -0.65002245
-0.15348768 -0.80084252 -0.65889549
0.40988624 -0.80084145 -0.65889335
0.86267692 -0.80767262 -0.65002328
0.89138561 -0.80920279 -0.65636921
1.2733052 -0.80997205 -0.65054703
1.2637427 -0.79133964 -0.65084589
-0.62036502 -0.78578782 -0.65010071
-0.51696771 -0.78732413 -0.65022552
-0.27555254 -0.78698933 -0.65986788
0.53154886 -0.78646779 -0.65917832
0.77322751 -0.78724122 -0.65026438
0.87662941 -0.7858721 -0.65016586
-0.3783215 -0.76745063 -0.65694308
0.63532037 -0.76707309 -0.65582275
-0.30674863 -0.96002769 -0.64328808
0.56314898 -0.96002722 -0.64328861
-0.65931988 -0.95865571 -0.64032668
0.91569644 -0.95849121 -0.64038801
-0.38742012 -0.91021454 -0.64108354
0.64375865 -0.90989006 -0.64078587
0.93228006 -0.90114069 -0.64995694
1.2969272 -0.86430019 -0.64732808
-0.056435525 -0.81976753 -0.64643037
-0.025688857 -0.8101331 -0.64707661
0.31283289 -0.81976873 -0.64643079
-0.55273527 -0.80856419 -0.64044654
0.28203994 -0.80991888 -0.64727497
0.80913281 -0.80856526 -0.64044631
-0.11361282 -0.79833865 -0.64825362
0.36998421 -0.79845941 -0.64839637
-0.75722957 -0.78981435 -0.64069122
-0.60606742 -0.93604177 -0.63886726
0.86233091 -0.93575925 -0.63881516
-0.19717592 -0.92581487 -0.63953799
0.45367843 -0.92555428 -0.63940591
0.043958783 -0.91888618 -0.63560748
0.21238387 -0.91902745 -0.63550568
1.0478352 -0.90703249 -0.63395709
0.98150283 -0.89173603 -0.63943559
-0.71974385 -0.88828135 -0.6379118
-0.77324581 -0.87045276 -0.63683724
1.03177 -0.87107688 -0.63548326
-0.80342978 -0.86006486 -0.63484919
0.033423185 -0.86050546 -0.6339494
0.22300231 -0.86035138 -0.63397694
-0.57062334 -0.83555692 -0.63168317
-0.10358953 -0.83533728 -0.63201189
0.35984683 -0.83561933 -0.63195968
-0.62330413 -0.82013214 -0.63073945
0.87965345 -0.82027173 -0.63084137
1.1797643 -0.80482233 -0.63298345
-0.10006315 -0.78412366 -0.6343419
0.35646009 -0.78412437 -0.63434094
-0.2998392 -0.77259815 -0.63931215
0.55637509 -0.77283454 -0.63982934
-0.12128353 -0.95849371 -0.62829268
0.3776567 -0.95833033 -0.62835324
-0.07403636 -0.92597938 -0.62536436
0.33048528 -0.92611039 -0.62543035
-0.69023097 -0.88526654 -0.62841201
-0.11471924 -0.88648641 -0.62048399
0.37111983 -0.8864857 -0.62048435
0.94649702 -0.88518125 -0.62847841
1.087378 -0.84039599 -0.62886995
-0.35284346 -0.83199942 -0.62208176
0.60932076 -0.832147 -0.62213862
1.268909 -0.82514912 -0.62546813
-0.45153654 -0.81046057 -0.62157357
0.70793581 -0.81046027 -0.62157238
-0.57449377 -0.80164212 -0.62007815
0.12602898 -0.80027401 -0.62783211
0.83079576 -0.80175751 -0.62016624
0.13057706 -0.79999769 -0.62811399
1.1028762 -0.78506619 -0.62860286
0.046000361 -0.96002084 -0.6187439
0.21042514 -0.96017826 -0.61877298
-0.1633603 -0.95816761 -0.6162523
0.41972828 -0.95833105 -0.61619246
-0.59570652 -0.92640042 -0.61148387
0.85215205 -0.9265306 -0.61154991
-0.36011446 -0.91953272 -0.61987305
0.61646032 -0.91939038 -0.61997521
-0.69648641 -0.90847766 -0.61168295
0.095474184 -0.90016776 -0.61666721
0.95288497 -0.90847766 -0.61168224
0.97207052 -0.90927362 -0.6155504
-0.62895346 -0.89813459 -0.61040378
0.16112828 -0.8999294 -0.61685121
0.88530505 -0.89789009 -0.61068869
-0.17000136 -0.88357419 -0.61230463
-0.16663033 -0.88300395 -0.61253941
0.10880337 -0.88055575 -0.61358815
0.14780366 -0.88067627 -0.61425561
0.42483503 -0.88321519 -0.612252
1.1321604 -0.88056123 -0.61440414
-0.47735053 -0.82545537 -0.61150235
0.73385763 -0.82571602 -0.61136925
-0.517151 -0.7984519 -0.61765027
0.91539001 -0.79183519 -0.61052883
-0.34011239 -0.78120708 -0.61667609
-0.1793147 -0.78241026 -0.6181128
-0.15895733 -0.78284889 -0.61622345
0.4156782 -0.78303927 -0.61577094
0.43571207 -0.78240955 -0.61811292
0.59662801 -0.78113919 -0.61707449
0.96374357 -0.95816946 -0.60402381
-0.038442314 -0.93544251 -0.60880917
0.29469854 -0.93515885 -0.60875708
1.047487 -0.93129945 -0.60856593
-0.28402153 -0.91011298 -0.60576308
0.54042101 -0.91011369 -0.60576153
1.1818318 -0.91988957 -0.60453695
1.0317798 -0.90452439 -0.60300201
1.2410614 -0.89768267 -0.60641891
0.73590612 -0.86041141 -0.60962319
-0.67024863 -0.85854667 -0.60933703
0.92664742 -0.85854703 -0.60933721
-0.34519452 -0.83322525 -0.60723138
-0.2149111 -0.83500177 -0.60171127
0.47116083 -0.83471859 -0.60176361
0.60166544 -0.83307791 -0.60717446
0.18855873 -0.81013227 -0.60234493
-0.83326584 -0.80104339 -0.60568619
0.067795917 -0.80991828 -0.60254383
-0.091198266 -0.79068053 -0.60485059
0.34767544 -0.79081655 -0.60460806
0.98766226 -0.78064454 -0.60139561
-0.46845853 -0.96017128 -0.59435773
0.72487974 -0.96032631 -0.59438682
0.076475859 -0.93223238 -0.5937041
0.1799224 -0.93223298 -0.59370244
1.3678324 -0.92681623 -0.59776181
0.3688809 -0.90007591 -0.59648252
0.85822958 -0.90988934 -0.5960058
-0.11227924 -0.89979506 -0.5961979
0.12821862 -0.8904438 -0.59558976
-0.10933173 -0.88183033 -0.59571755
0.067347616 -0.88859141 -0.59519601
0.18918344 -0.88850969 -0.5951606
0.36573094 -0.88182938 -0.59572089
-0.28636089 -0.87271589 -0.59322524
0.542853 -0.87255394 -0.59357059
1.1629287 -0.87924916 -0.59769803
1.3890163 -0.86017084 -0.59390998
-0.23810798 -0.85952193 -0.59141481
-0.13390547 -0.85848039 -0.59725511
0.39030319 -0.85848016 -0.59725457
0.49482983 -0.85972106 -0.59009594
-0.63739002 -0.84524798 -0.59355688
-0.72298455 -0.82353091 -0.59944081
-0.60233724 -0.82769173 -0.59437752
0.051538765 -0.82601756 -0.59756541
0.20491135 -0.82614762 -0.59749931
1.0678841 -0.81434977 -0.59440428
0.1230776 -0.80712777 -0.59136927
0.13320604 -0.80700839 -0.59132981
1.1921602 -0.80700791 -0.59970796
-0.67268109 -0.79158026 -0.59041262
0.12819937 -0.79846001 -0.59778452
0.84288919 -0.7754283 -0.59313405
1.0804577 -0.77088898 -0.59822345
1.1958468 -0.77944028 -0.59497899
1.131039 -0.90508956 -0.58428836
-0.3805725 -0.88832164 -0.58227247
0.63667357 -0.88790214 -0.58281696
1.1162843 -0.88554233 -0.5844748
1.2461284 -0.86047053 -0.58539701
-0.79191577 -0.85703659 -0.58754408
-0.14902616 -0.85857522 -0.58516645
0.40539443 -0.85841185 -0.58510709
-0.7454353 -0.83151031 -0.58580631
-0.60687584 -0.83870029 -0.58870786
-0.3177669 -0.83496159 -0.58477449
-0.094785079 -0.83509719 -0.58470619
0.12820087 -0.83509833 -0.58470547
0.3511844 -0.83509827 -0.58470547
0.57417291 -0.8352353 -0.58463609
0.79715908 -0.83523464 -0.58463657
1.0201442 -0.83523548 -0.58463609
1.2431371 -0.83537096 -0.58456731
1.408643 -0.83466655 -0.58442867
-0.31793302 -0.8267017 -0.58372259
0.57442766 -0.82644331 -0.58385491
1.0753999 -0.80784351 -0.58658975
-0.14814356 -0.78701031 -0.58624494
0.4044331 -0.78694212 -0.58632588
1.1199582 -0.78583145 -0.58804464
1.2543927 -0.78367972 -0.58555472
1.236637 -0.96047497 -0.57012904
-0.86620402 -0.93313825 -0.5792731
-0.28376645 -0.93454611 -0.57812518
0.54008931 -0.93469071 -0.57815212
1.122672 -0.93328524 -0.57921803
-0.49943137 -0.90916574 -0.57029676
-0.46049023 -0.90578401 -0.57877493
-0.26710245 -0.90094668 -0.57801914
-0.053271085 -0.90669006 -0.57347012
0.30947503 -0.90691406 -0.57358384
0.52360034 -0.90106505 -0.57792902
0.71668828 -0.90601015 -0.57889056
0.75580603 -0.9092741 -0.57039738
-0.30564797 -0.88841236 -0.57902008
0.56194258 -0.88834363 -0.57893968
0.91766274 -0.8800348 -0.57863033
1.1097636 -0.87521875 -0.57156271
-0.69128263 -0.8583442 -0.57288957
-0.67820156 -0.85451436 -0.57563889
0.94764853 -0.85817987 -0.57282889
