# .PCD v0.7 - Point Cloud Data file format
VERSION 0.7
FIELDS x y z
SIZE 4 4 4
TYPE F F F
COUNT 1 1 1
WIDTH 1427
HEIGHT 1
VIEWPOINT 0 0 0 1 0 0 0
POINTS 1427
DATA ascii
1.0172086 -0.8358019 -6.5037155
2.0879664 -0.83107424 -6.5030112
-0.16924393 -0.82884252 -6.5071607
0.36813867 -0.82896638 -6.5071192
-2.2832875 -0.81779456 -6.5083823
-0.37528408 -0.81122649 -6.505662
0.57412899 -0.81122684 -6.505661
2.4821115 -0.81799126 -6.5082397
-2.8017888 -0.80829346 -6.5086102
-2.3281467 -0.80301023 -6.5053864
-0.51456404 -0.80230808 -6.5038943
0.71350098 -0.80212545 -6.5041614
2.5268335 -0.80283177 -6.5055275
-1.9214343 -0.79849946 -6.5053921
-0.20721376 -0.79034972 -6.5041866
0.40617275 -0.79047966 -6.5043135
2.1203961 -0.79841614 -6.5055537
-2.2185934 -0.78628469 -6.5051241
-1.1914545 -0.78575671 -6.5090475
1.3901774 -0.78579181 -6.5090146
2.4174504 -0.78614998 -6.5049376
-0.032204509 -0.77381444 -6.5047774
0.23139083 -0.77335024 -6.5040541
2.8380105 -0.77416468 -6.5091434
-0.72423208 -0.75178456 -6.5084491
0.92272717 -0.75169253 -6.5081882
0.088111296 -0.73667371 -6.5048928
0.11158268 -0.73713624 -6.5086117
-2.3242848 -0.96101713 -6.4935012
-0.40760434 -0.96037436 -6.4913664
0.60644931 -0.96037626 -6.491365
2.5231297 -0.96101761 -6.4935007
-2.0164688 -0.95999277 -6.4992914
2.2153146 -0.95999324 -6.4992924
-2.7981701 -0.93077576 -6.4924207
-2.4741824 -0.93746686 -6.4918361
-2.2597153 -0.93746805 -6.4918365
-2.0452368 -0.93759942 -6.4918814
-1.8307505 -0.93786407 -6.4919729
-1.6162958 -0.93773174 -6.4919271
-1.4018314 -0.93773174 -6.4919271
-1.1873598 -0.93786478 -6.4919729
-0.97289652 -0.93786383 -6.4919724
-0.75843769 -0.93773103 -6.4919271
-0.54397154 -0.93773222 -6.4919276
-0.32950622 -0.93773222 -6.4919276
-0.11504399 -0.93759966 -6.4918814
0.099421926 -0.93759918 -6.4918814
0.31388825 -0.93760061 -6.4918823
0.52835429 -0.93760014 -6.4918818
0.74282026 -0.93759966 -6.4918814
0.95728737 -0.93760061 -6.4918823
1.1717516 -0.93759918 -6.4918814
1.3862121 -0.93773174 -6.4919271
1.6006747 -0.9377315 -6.4919271
1.8151499 -0.93759966 -6.4918814
2.0296249 -0.93746758 -6.4918365
2.2440829 -0.93760014 -6.4918818
2.4585364 -0.9377327 -6.4919281
2.6730008 -0.93773103 -6.4919271
2.8874643 -0.93773198 -6.4919276
3.1019294 -0.93773174 -6.4919271
-1.6798632 -0.92579746 -6.490459
-0.73900712 -0.92816186 -6.4929743
-0.17097136 -0.92873526 -6.4990106
-0.070520639 -0.9276222 -6.49893
0.26952982 -0.92730284 -6.4991016
0.36981574 -0.92873526 -6.4990101
0.93795669 -0.9279089 -6.4928875
1.8786016 -0.92595136 -6.4904194
-2.29741 -0.9069041 -6.497067
-1.8572751 -0.90577674 -6.4986396
-1.6673745 -0.90938926 -6.4933863
-1.5269685 -0.90381289 -6.4920168
-0.42600369 -0.90914762 -6.497756
0.62484825 -0.90914834 -6.4977565
1.7259617 -0.90363336 -6.4918766
1.8662193 -0.90938878 -6.4933863
2.0557966 -0.90611434 -6.498744
2.4959466 -0.90653747 -6.4972587
-2.8526785 -0.89803767 -6.4961286
-2.3164515 -0.89671516 -6.4948087
-1.0818864 -0.89226931 -6.4941397
-1.0464942 -0.89398861 -6.4950166
-0.455244 -0.89491987 -6.4919229
0.65379208 -0.89472497 -6.4917598
1.244976 -0.89375257 -6.494977
1.2805597 -0.8923555 -6.4945436
2.5153465 -0.89675701 -6.4950047
-0.58323842 -0.88793826 -6.4912429
0.78278577 -0.88809216 -6.4917107
-0.98594427 -0.87959909 -6.4925418
1.1851104 -0.87941211 -6.4926214
-2.330065 -0.86101627 -6.4972672
-2.2842264 -0.86592245 -6.4946322
-1.6518985 -0.86169076 -6.4996238
2.4832485 -0.8658216 -6.4947381
2.5289097 -0.86101782 -6.4972668
-2.0244861 -0.85206223 -6.4963484
2.2235956 -0.85168695 -6.4972639
-1.9066491 -0.83002716 -6.4915314
2.7423515 -0.83242929 -6.4970579
-1.5299239 -0.82782602 -6.4981613
-1.0331569 -0.82674527 -6.4980626
0.024391592 -0.82859814 -6.4948378
0.17445236 -0.82859874 -6.4948373
1.2320025 -0.82674694 -6.4980621
1.7287693 -0.82782733 -6.4981604
2.1055598 -0.82987523 -6.4914498
-2.6348996 -0.81366837 -6.495656
-2.4222736 -0.81114268 -6.4997435
-2.3294408 -0.81555772 -6.4913416
-2.0741093 -0.81471705 -6.4945111
-0.90049374 -0.81043911 -6.4976554
1.0994455 -0.81032163 -6.4976435
2.2728779 -0.81481743 -6.4944797
2.5282145 -0.81535459 -6.4914885
2.6212163 -0.81097937 -6.4998713
2.5166669 -0.80216014 -6.4956164
3.0204768 -0.80473894 -6.4906063
-2.4828012 -0.79599977 -6.4951358
-2.3329268 -0.79217136 -6.4912696
-0.52779043 -0.79170322 -6.4913268
0.72663462 -0.79170328 -6.4913263
2.6819382 -0.79626894 -6.4952774
2.7943852 -0.78158164 -6.4983678
-1.0969841 -0.77830768 -6.4918413
1.2959676 -0.77821815 -6.4917455
-2.1704936 -0.7637105 -6.4967546
-0.24544019 -0.76281905 -6.4916019
0.44507009 -0.76231802 -6.4906526
2.3704548 -0.76399493 -6.4968314
-0.29667211 -0.74645406 -6.4917049
0.4955163 -0.74645406 -6.4917049
-1.0060667 -0.96057451 -6.4839764
1.2049305 -0.96073091 -6.483984
-2.1250246 -0.926826 -6.483634
2.323869 -0.92682719 -6.4836345
-1.7017031 -0.9152 -6.4892354
-0.42527634 -0.91582155 -6.4831028
0.62414604 -0.91572118 -6.4830313
1.9005466 -0.91519952 -6.4892344
-2.9480085 -0.90833116 -6.4836526
0.037239909 -0.90977824 -6.4872322
0.16151178 -0.90988672 -6.4872675
-1.5474173 -0.8834188 -6.4891229
-0.28584164 -0.88198388 -6.4858451
-0.064542592 -0.88968486 -6.483285
0.2637859 -0.88943899 -6.4832435
0.48521596 -0.88213545 -6.4859819
1.7461779 -0.88369894 -6.4887409
-2.1913865 -0.87658358 -6.4847937
-1.6652427 -0.87017274 -6.4843211
2.3903697 -0.87681401 -6.4844408
-1.0156341 -0.86071384 -6.4878063
-0.17983511 -0.86039644 -6.4893222
0.37867966 -0.86039579 -6.4893227
1.214478 -0.8607161 -6.4878054
1.8642894 -0.86993074 -6.4846931
-2.5955846 -0.85968578 -6.4847856
2.7942638 -0.85980928 -6.484549
-2.4482095 -0.84911442 -6.4870396
-1.4391893 -0.83031011 -6.4817638
1.6380342 -0.83030939 -6.4817638
-2.6941121 -0.82787156 -6.4827132
-1.8811077 -0.82624531 -6.4861388
2.0798452 -0.82609308 -6.4860988
-1.9319148 -0.81025171 -6.4885869
-1.0494783 -0.8161037 -6.4852719
-0.58288872 -0.81166625 -6.4854937
0.78162408 -0.81197357 -6.4857697
1.2483225 -0.81610417 -6.4852715
2.1308641 -0.81008625 -6.4887171
-0.53347111 -0.80093575 -6.4808502
0.73235166 -0.80099773 -6.4807587
-1.6729727 -0.79810619 -6.4803901
1.8719559 -0.79823864 -6.4804592
-1.9267322 -0.78190625 -6.4858298
-0.6944949 -0.78324246 -6.4877543
-0.33227897 -0.78281879 -6.4861126
0.53191245 -0.78259975 -6.4863167
0.89266723 -0.78311235 -6.4881725
2.1247463 -0.78215355 -6.4858952
-1.068421 -0.77949136 -6.4809442
1.2677488 -0.7797668 -6.4810653
-1.0960901 -0.75929344 -6.4874372
1.2953039 -0.75939095 -6.4875755
-0.6576618 -0.96048808 -6.4749823
-0.13338232 -0.96028411 -6.4743147
0.33222771 -0.96028483 -6.4743156
0.85650599 -0.96048748 -6.4749808
-2.3407354 -0.9314189 -6.4750705
-2.1866403 -0.93070841 -6.476757
2.3855536 -0.93095088 -6.4768405
2.5396538 -0.93156111 -6.4750333
-1.9139558 -0.92561328 -6.4772625
-1.1147071 -0.92893755 -6.4715667
1.3135518 -0.92893755 -6.4715672
2.1127996 -0.9256134 -6.4772635
-2.637598 -0.91075587 -6.4762125
-1.8721805 -0.91713572 -6.4711819
-1.5859627 -0.91315913 -6.4766121
-0.63332975 -0.91653299 -6.4771338
0.83217376 -0.91653299 -6.4771338
1.7848879 -0.91326356 -6.4766445
2.0710378 -0.91723442 -6.4712524
2.8365393 -0.91092229 -6.4763417
-2.1112499 -0.90339804 -6.4737306
-2.0994935 -0.9027307 -6.4797273
-0.33369252 -0.90069175 -6.4795237
-0.11095399 -0.90845215 -6.4789777
0.30979699 -0.90845132 -6.4789782
0.53257298 -0.90062881 -6.4794331
2.2982593 -0.90282154 -6.4797988
2.3099797 -0.90309238 -6.4732881
-0.80539858 -0.89249682 -6.4710665
1.0043461 -0.89262497 -6.470942
-1.4855042 -0.88467574 -6.4705033
-0.54914916 -0.8850112 -6.4779744
0.74791515 -0.88459563 -6.4785423
1.2266629 -0.88998342 -6.4700418
1.6840546 -0.88484693 -6.4705334
-1.1722155 -0.87775469 -6.4760728
1.3711972 -0.87784529 -6.4759755
2.6926191 -0.87586409 -6.4731779
-0.4303869 -0.8604852 -6.4729481
-0.28744382 -0.86194146 -6.4719062
-0.11995077 -0.8605625 -6.4781933
0.31879449 -0.86056346 -6.4781928
0.48707318 -0.86245465 -6.4709554
0.62923145 -0.86048454 -6.4729471
-1.1717535 -0.8502838 -6.4719763
0.029587612 -0.84478891 -6.4730806
0.16939956 -0.84481943 -6.472899
1.3698622 -0.84977943 -6.4736419
-2.151701 -0.83151531 -6.4710784
2.3506207 -0.83137357 -6.4710402
-0.18474877 -0.82820606 -6.470376
-0.13640285 -0.82933831 -6.4725494
0.33520162 -0.82946312 -6.472506
0.38359296 -0.82820606 -6.4703751
3.1191611 -0.8247509 -6.4760699
-1.2548507 -0.81746936 -6.4731865
-0.012596309 -0.81664276 -6.4792929
0.21141934 -0.81674314 -6.4792185
1.45374 -0.81717443 -6.4734001
1.5526356 -0.81005383 -6.4753399
-1.9123622 -0.8036449 -6.4748535
-1.4323307 -0.80934358 -6.4772196
-1.3537204 -0.80989575 -6.4751987
-0.85873759 -0.80853349 -6.4793196
-0.59424472 -0.80973494 -6.4791827
0.79319906 -0.80961668 -6.4791708
1.0573828 -0.80831623 -6.4793878
1.6311758 -0.80934358 -6.4772196
2.1111827 -0.80370474 -6.4747653
-2.1931164 -0.79794157 -6.4723415
-1.9602966 -0.79946876 -6.4743834
-1.1330372 -0.79373252 -6.4741764
-0.67068213 -0.79300755 -6.4754272
0.86964792 -0.79306895 -6.4751248
1.3320839 -0.79348135 -6.4739323
2.1591415 -0.79946887 -6.4743824
2.3920729 -0.79786587 -6.4723554
2.8914475 -0.79708678 -6.4785113
-0.46935692 -0.75520015 -6.4764886
-0.43720174 -0.75677091 -6.4734635
0.63397735 -0.75734562 -6.4750876
0.66815495 -0.75528908 -6.4767118
-1.4921925 -0.960145 -6.4645123
1.6910729 -0.95998704 -6.4645047
2.961895 -0.95904779 -6.4630337
-0.9018321 -0.92958689 -6.4675484
-0.45187286 -0.92913747 -6.4659009
0.65071785 -0.92913842 -6.4658999
1.1006761 -0.92958593 -6.4675484
-2.1486278 -0.90990305 -6.464757
2.3475232 -0.9099865 -6.4648228
2.8824582 -0.90171731 -6.4672585
2.522336 -0.89598757 -6.4669867
-2.7977672 -0.88602281 -6.4678011
-1.0282687 -0.88971102 -6.4698133
-0.25605351 -0.88420528 -6.4662833
0.45489877 -0.88420588 -6.4662833
-0.42930573 -0.87867504 -6.4621396
0.62800813 -0.87871456 -6.4621754
-2.8369124 -0.86636901 -6.4682178
-1.4747596 -0.86009663 -6.4684496
-1.2461993 -0.86716241 -6.4641614
1.4441646 -0.8674016 -6.4641013
1.673604 -0.86009741 -6.4684486
3.1962986 -0.85903877 -6.4609299
2.710732 -0.84711111 -6.4672084
2.6209886 -0.83264434 -6.4628444
-2.478632 -0.82160282 -6.4647579
-1.0097665 -0.82808447 -6.4631224
-0.25723377 -0.82906878 -6.4618096
0.45607862 -0.82906795 -6.4618106
1.2086649 -0.82821071 -6.463078
-0.75109029 -0.8120302 -6.4689207
0.95002174 -0.81192565 -6.4689527
2.6778188 -0.81779552 -6.4675236
-0.92343032 -0.80816472 -6.4658384
-0.28335661 -0.80890232 -6.460412
0.48231286 -0.80878371 -6.4604011
1.1219852 -0.80858767 -6.4655037
-2.243588 -0.79341567 -6.4647422
-0.98108578 -0.79375857 -6.4602447
-0.89042878 -0.79975021 -6.4659433
1.0891423 -0.79962075 -6.4658761
1.179688 -0.7939136 -6.460217
2.4426079 -0.79337615 -6.4648676
-2.4094243 -0.78388715 -6.469018
-2.3161685 -0.78645045 -6.468883
2.5157509 -0.78686458 -6.4685278
2.6082692 -0.78388906 -6.4690194
-0.97550189 -0.77507663 -6.4671645
-0.37822118 -0.77898657 -6.4624376
0.576644 -0.7788738 -6.4625411
1.1740339 -0.77553463 -6.4678769
-1.7166934 -0.76804864 -6.4658442
1.9162147 -0.76843178 -6.4662561
-2.3176734 -0.7521019 -6.4608598
2.516995 -0.7527442 -6.4624615
-2.8241415 -0.96116304 -6.4596038
-0.90646189 -0.96059889 -6.4586787
1.1053064 -0.96059912 -6.4586778
3.0229781 -0.96101046 -6.4595957
3.0709023 -0.95984471 -6.4545512
-1.8860209 -0.93288076 -6.4537511
2.0847785 -0.93302733 -6.4537535
2.7038589 -0.93237746 -6.4597087
-1.3776867 -0.92638308 -6.4561343
-0.22562242 -0.92855525 -6.458086
0.42451644 -0.92842889 -6.4580417
1.5765308 -0.92638367 -6.4561343
-0.91621053 -0.91198313 -6.4597673
-0.22514307 -0.91071272 -6.4501162
0.42389715 -0.91060495 -6.4500813
1.1150002 -0.91182745 -6.4599047
2.9929686 -0.9148767 -6.4532309
-1.6504966 -0.90911794 -6.4531517
-1.4386442 -0.90678334 -6.4598813
-0.90079182 -0.90218663 -6.4506412
-0.010220289 -0.90774524 -6.4599023
0.2091822 -0.90762258 -6.4599147
1.0994916 -0.9018774 -6.4501929
1.6373851 -0.90689349 -6.4599156
1.849447 -0.90928674 -6.4532852
-1.6145979 -0.89940929 -6.4558725
-1.5397536 -0.89788938 -6.4544592
-1.515411 -0.89763039 -6.4526463
1.714254 -0.89763147 -6.4526463
1.7385985 -0.89788938 -6.4544582
1.8136157 -0.89915514 -6.4555044
-2.6309247 -0.88468444 -6.457778
-1.5539346 -0.87110603 -6.4587193
1.7526261 -0.8710596 -6.4587836
-1.5211251 -0.86076558 -6.453764
-0.67968017 -0.86057293 -6.456656
0.8785246 -0.8605727 -6.456655
1.7199694 -0.86076546 -6.4537644
2.6436162 -0.85030997 -6.4589038
3.0913186 -0.85150123 -6.4586167
-2.6996102 -0.83900046 -6.4580274
-1.8071182 -0.83326793 -6.456892
-1.2035486 -0.83387935 -6.4510493
1.4024751 -0.83402437 -6.451046
2.0059621 -0.83326817 -6.4568911
-1.5780691 -0.82643986 -6.451859
1.7769145 -0.82644153 -6.4518595
2.5980883 -0.82691693 -6.4533396
-2.4230313 -0.81526089 -6.4593072
2.6217256 -0.81546354 -6.4592433
-2.3884287 -0.80554628 -6.451232
-0.70127296 -0.80218601 -6.4519105
-0.40429986 -0.80764544 -6.4536982
-0.13421136 -0.80134082 -6.4519844
0.33318013 -0.80146879 -6.4520516
0.60308254 -0.80773079 -6.4536309
0.90008903 -0.80224729 -6.4518185
2.5872722 -0.80554545 -6.4512324
-1.8148007 -0.79927444 -6.4575334
-0.4228459 -0.79488343 -6.4528985
0.62129402 -0.79513931 -6.4526806
2.0138206 -0.79952502 -6.4571648
-1.3387489 -0.78855681 -6.4529495
-0.1743356 -0.78482401 -6.455246
-0.10825491 -0.78523421 -6.4588447
0.30709898 -0.78523517 -6.4588456
0.37317973 -0.78482419 -6.455245
1.5375919 -0.78855658 -6.452951
1.827854 -0.78014433 -6.4504962
-1.6292765 -0.7799682 -6.4503074
-1.9991406 -0.76773942 -6.451704
2.1979849 -0.76773942 -6.4517031
-1.5130295 -0.96087849 -6.4498553
-1.1540143 -0.96070755 -6.4424572
1.3528587 -0.96070755 -6.4424577
1.7118578 -0.96072316 -6.4498477
-2.6239741 -0.95603788 -6.4438581
-2.0585468 -0.9558593 -6.442132
-1.4899106 -0.95568013 -6.4403958
1.6887541 -0.95567906 -6.4403954
2.257375 -0.95568514 -6.4422212
2.6945992 -0.95916581 -6.4461675
-2.6651077 -0.93095279 -6.4431791
-2.6000626 -0.93179238 -6.4433732
-2.4444735 -0.93035561 -6.4451985
-1.2784468 -0.93366486 -6.4479098
-0.68223131 -0.93428969 -6.4421735
0.88123274 -0.93400061 -6.4421678
1.4772912 -0.93366534 -6.4479103
2.8640182 -0.93119574 -6.4432616
-1.5955514 -0.92736125 -6.4482665
-0.45634854 -0.9271636 -6.4495587
0.65527725 -0.92700458 -6.4496446
1.7944546 -0.9272337 -6.4482231
-1.9443343 -0.91392827 -6.4409714
-1.4999166 -0.9152 -6.4471045
-1.0153718 -0.91032791 -6.4488001
-0.22500151 -0.91582108 -6.441287
0.42387015 -0.91572022 -6.4412146
1.2142832 -0.91016746 -6.4489431
1.6987617 -0.91519976 -6.4471045
2.1431789 -0.91392827 -6.4409704
-1.143061 -0.9085753 -6.4415298
-0.33544469 -0.90690458 -6.4405365
0.53452635 -0.90666127 -6.4405618
1.3415656 -0.9080627 -6.4411273
-2.4951341 -0.89673603 -6.4444709
-2.2840521 -0.89575028 -6.4420266
-0.89556205 -0.89224762 -6.4414263
1.0947008 -0.89209598 -6.4407134
2.4828026 -0.895625 -6.4421458
2.6942182 -0.89694333 -6.445446
-1.7130688 -0.88708651 -6.4493127
-1.5843986 -0.88896596 -6.4418697
1.7829788 -0.8887943 -6.4419441
1.9121689 -0.88681602 -6.4495735
3.0725243 -0.88442516 -6.4459128
-0.67056489 -0.8715694 -6.4470186
0.86922312 -0.87180996 -6.446651
-1.6413037 -0.86851001 -6.4486504
-0.92772424 -0.86065978 -6.4404464
-0.19392633 -0.86045957 -6.4439249
0.39274573 -0.86061472 -6.4439182
1.1265687 -0.86065954 -6.4404445
1.8411626 -0.86792231 -6.4492702
2.9284782 -0.85913163 -6.4440765
-1.9237727 -0.83066702 -6.4480472
-0.61119652 -0.83462298 -6.4453106
0.80996239 -0.8344782 -6.4453149
2.1226532 -0.83054614 -6.4480896
-1.5452418 -0.82976246 -6.4438677
-1.4277382 -0.8264538 -6.4482079
1.6264904 -0.82629192 -6.4481201
1.7440858 -0.82976222 -6.4438667
-2.127845 -0.81555796 -6.4492502
-1.200829 -0.81239343 -6.4425831
-0.84941953 -0.81620407 -6.4434228
1.0482371 -0.81610441 -6.4434953
1.3996235 -0.81254768 -6.4427214
2.3266544 -0.81545591 -6.4493246
-0.45892799 -0.80916917 -6.441668
0.032501161 -0.80817533 -6.44136
0.074192286 -0.80677187 -6.4415956
0.1247161 -0.80685771 -6.4415278
0.16634393 -0.80817479 -6.441359
0.65777338 -0.80916941 -6.441669
-2.5871644 -0.79655844 -6.4454684
-2.6567481 -0.78527892 -6.4422216
-1.9474175 -0.78628564 -6.4485064
-0.1303952 -0.78947985 -6.4471254
0.32937291 -0.78956032 -6.4471126
2.1462624 -0.78628564 -6.4485068
-1.7001778 -0.76200604 -6.4426146
-1.2008028 -0.76799989 -6.4462152
1.3996454 -0.76799941 -6.4462152
1.8988762 -0.7620489 -6.4427352
-2.5487819 -0.75401616 -6.4472246
2.7474651 -0.75392795 -6.4470601
-0.18198895 -0.96058798 -6.4399581
0.38080883 -0.96043384 -6.4399509
-1.2034466 -0.95511556 -6.4313841
-0.9180603 -0.95567238 -6.4385605
-0.61836052 -0.95529962 -6.4331703
-0.34292746 -0.95548952 -6.4368038
-0.036620378 -0.9554826 -6.434948
0.23549461 -0.95530784 -6.4350376
0.5417974 -0.95566595 -6.4367132
0.81723714 -0.95512378 -6.4332609
1.1169038 -0.95567203 -6.43856
1.4022921 -0.95511663 -6.4313831
-0.27870512 -0.93536508 -6.4310122
-0.097049832 -0.93476033 -6.4365406
0.29582 -0.9349035 -6.4365435
0.47747874 -0.93522274 -6.4310093
-1.3946834 -0.9299655 -6.4335299
-0.72984731 -0.92938983 -6.4331656
0.92869139 -0.92938936 -6.433166
1.5935278 -0.92996478 -6.4335294
3.2100327 -0.92625749 -6.4381652
-2.0695069 -0.9172349 -6.4300556
-0.83207852 -0.91633344 -6.4354858
1.0309564 -0.91653299 -6.4356298
-1.8894756 -0.89641976 -6.436101
-0.73459339 -0.89961571 -6.438591
0.042870641 -0.89323616 -6.4315495
0.15587145 -0.89316976 -6.4314928
0.93330657 -0.89974731 -6.4385228
2.0883219 -0.89642096 -6.436101
3.1305232 -0.89802599 -6.4314599
-1.8245729 -0.8834188 -6.4312558
2.023243 -0.88397741 -6.4304943
-1.7042464 -0.87958407 -6.4347878
-1.4031005 -0.87467253 -6.436491
1.6017945 -0.87471294 -6.4365287
1.9029561 -0.87949359 -6.4348836
-2.0438948 -0.86743736 -6.4323463
-0.95473075 -0.86030608 -6.433929
1.153574 -0.86030477 -6.433929
2.242511 -0.86727339 -6.4326496
2.9822106 -0.86069274 -6.4327035
-2.7820139 -0.85964155 -6.4307203
-0.48724166 -0.8548851 -6.4339085
0.68613279 -0.85497665 -6.4336863
-2.9487605 -0.8342638 -6.437274
-2.4117928 -0.83181059 -6.4394193
-0.34254766 -0.83592868 -6.4341483
-0.029597759 -0.83521122 -6.4396811
0.22844219 -0.8352114 -6.4396811
0.54146123 -0.83578813 -6.4341526
-0.63559628 -0.82970786 -6.4383454
0.83444166 -0.82970643 -6.4383459
-1.4519981 -0.81736994 -6.4320993
-1.1210419 -0.8128202 -6.4327536
-0.7089659 -0.81065011 -6.4314928
-0.21119368 -0.81664324 -6.4378271
0.41001773 -0.81674314 -6.4377532
0.90774655 -0.81049395 -6.4313526
1.320137 -0.81251037 -6.4328489
1.6508847 -0.81707644 -6.432313
-0.39779043 -0.8032546 -6.438684
0.59698939 -0.80287665 -6.4384861
-1.5514971 -0.785092 -6.4328575
-1.5035826 -0.78922969 -6.4313431
1.7022959 -0.78931344 -6.4313779
1.7500473 -0.78492385 -6.4328885
-1.8942969 -0.77687287 -6.4313951
-1.346252 -0.77522182 -6.4369721
1.5453978 -0.77529937 -6.4368987
2.0932844 -0.77664638 -6.4310436
-1.1756506 -0.7500124 -6.4341116
1.3737583 -0.75049937 -6.4357691
-1.4003299 -0.96081889 -6.4263167
-0.97062588 -0.96013904 -6.429903
1.169441 -0.96029508 -6.4299116
1.5991741 -0.96081829 -6.4263186
-2.3837843 -0.95474517 -6.4277778
-2.2299135 -0.95911306 -6.4294286
-1.7919136 -0.95493138 -6.429585
1.9907564 -0.95493221 -6.4295855
2.4286914 -0.95928377 -6.4293885
2.582629 -0.95474482 -6.4277778
-1.3971267 -0.93667841 -6.4202576
-0.84293067 -0.93595719 -6.4255857
1.0417757 -0.93595719 -6.4255848
1.5958455 -0.93640041 -6.4202495
-2.3195891 -0.92529738 -6.4263873
-1.0786831 -0.92696303 -6.4221687
-0.74369764 -0.92865348 -6.4229684
-0.083322763 -0.92869425 -6.4234829
0.28221238 -0.92881846 -6.4235268
0.94239175 -0.92833972 -6.4231353
1.2775273 -0.92696303 -6.4221697
2.5184331 -0.92529798 -6.4263873
-2.8271213 -0.91434956 -6.4252224
2.2683291 -0.91703629 -6.4299126
-2.295759 -0.90351987 -6.4223537
-1.0272381 -0.90744019 -6.4216609
-0.66588378 -0.9060508 -6.4208603
-0.62548077 -0.90741849 -6.4292097
-0.14412713 -0.90075517 -6.4266462
0.019670606 -0.90127289 -6.4251447
0.17929745 -0.90114337 -6.425211
0.34300813 -0.90069199 -6.4265552
0.82420492 -0.9072454 -6.4290738
0.86472774 -0.90605068 -6.4208593
1.2257781 -0.90777206 -6.4217649
2.4944727 -0.90315366 -6.4218221
-0.68387097 -0.89169979 -6.4223037
-0.64745414 -0.89248574 -6.4223838
0.8461743 -0.89240575 -6.4223676
0.88302314 -0.891518 -6.4219604
-1.7585869 -0.88948584 -6.4262209
-0.80372953 -0.88238776 -6.4275241
-0.27484244 -0.88501096 -6.4207025
0.47360408 -0.88459563 -6.4212694
1.0005331 -0.88280255 -6.4287906
1.9581029 -0.88911557 -6.4255199
3.0806952 -0.8869369 -6.4298654
-2.0168147 -0.87630522 -6.4254785
2.2163496 -0.8759191 -6.4256434
-1.1745285 -0.86074603 -6.4243155
1.3733727 -0.8607465 -6.424315
-2.5117259 -0.85389352 -6.4260349
-2.4632049 -0.85922551 -6.4273076
-2.3229055 -0.85983419 -6.4237943
2.5217505 -0.85983419 -6.4237947
2.6620495 -0.85922706 -6.4273086
2.7104092 -0.85398495 -6.425868
-1.4542391 -0.83691156 -6.4233932
-1.1025252 -0.83603662 -6.4216194
-0.90341985 -0.83635479 -6.4287238
1.1021984 -0.83649403 -6.4287205
1.3022914 -0.83556783 -6.4251103
1.653083 -0.83691311 -6.4233923
-0.53610355 -0.82938635 -6.4290786
-0.49521661 -0.82833993 -6.4284606
0.0044038296 -0.82761109 -6.4212217
0.19460368 -0.82792592 -6.4213905
0.69416416 -0.82859015 -6.4283743
0.73486149 -0.82953137 -6.4291148
2.8735142 -0.81769633 -6.4267387
-2.0965915 -0.80346441 -6.4236512
-1.1053247 -0.80461019 -6.4255562
-0.46510625 -0.80588031 -6.4292569
-0.34422895 -0.80087423 -6.4280615
-0.15448982 -0.80743629 -6.4220066
0.35345176 -0.80755675 -6.4220195
0.54310834 -0.80093575 -6.4279714
0.66401774 -0.80596781 -6.4291868
1.3042798 -0.804488 -6.4254932
2.29532 -0.80376506 -6.4232078
3.1033676 -0.8089931 -6.4200869
-1.0589176 -0.79034168 -6.4290237
-0.48535442 -0.79302818 -6.422997
-0.064733505 -0.79141545 -6.423223
0.26335788 -0.79167187 -6.4234719
0.68403935 -0.79294586 -6.4234028
1.2573105 -0.79007339 -6.4292536
3.0657213 -0.78697658 -6.4225712
-2.4251366 -0.77746385 -6.421042
-1.5868635 -0.77185977 -6.4287581
-1.0955074 -0.77047563 -6.421947
1.2938631 -0.77019167 -6.4216428
1.7855563 -0.77190423 -6.4288216
2.1704476 -0.77011609 -6.4282346
2.6222012 -0.77714539 -6.422071
-1.9713957 -0.7698772 -6.4278641
-0.19482583 -0.73701274 -6.4279222
0.39361173 -0.73698211 -6.4276767
-2.0174284 -0.9610244 -6.4158974
-1.6454164 -0.96092772 -6.4102573
1.8442609 -0.96092796 -6.4102573
2.2162592 -0.96087122 -6.4158907
-2.3429213 -0.95983994 -6.4196997
-1.9653817 -0.9592309 -6.4127364
2.1641614 -0.95940107 -6.4126973
2.5417657 -0.95983922 -6.4196997
-2.8568687 -0.93216383 -6.411984
-1.9413112 -0.93697309 -6.4150143
2.1402755 -0.93724942 -6.4150214
-1.0719618 -0.92763662 -6.4131975
1.2708067 -0.92763686 -6.4131975
-2.5909131 -0.91456866 -6.4105577
-1.5324657 -0.91241515 -6.4169931
-0.60548747 -0.91131186 -6.4134874
0.80441916 -0.91141796 -6.4135203
1.7312616 -0.91226113 -6.4171295
2.7896495 -0.91487694 -6.4107804
-2.5633142 -0.90038657 -6.4188266
-0.55000353 -0.90274906 -6.4122076
-0.097908497 -0.90632558 -6.416719
0.29681671 -0.90641284 -6.4167871
0.74919975 -0.90313041 -6.4120121
2.7627409 -0.90081668 -6.4191895
-2.8116832 -0.89303482 -6.4194474
-2.0826209 -0.89831543 -6.4124656
-1.1350003 -0.89633143 -6.4158583
-0.14756584 -0.89421868 -6.4193063
-0.082342744 -0.89052725 -6.4196177
0.28118849 -0.89052665 -6.4196157
0.3462705 -0.89413047 -6.4191389
1.3333966 -0.89602697 -6.4152813
2.2811742 -0.89810252 -6.4120617
2.361311 -0.89310336 -6.41047
-2.5262496 -0.886024 -6.4111099
-0.32698956 -0.87129146 -6.4157696
-0.099344611 -0.87316728 -6.4103317
0.52632809 -0.87115264 -6.4158039
-2.0240843 -0.86081576 -6.4198933
-0.13085219 -0.86341643 -6.4153314
0.3303934 -0.86321926 -6.4156027
2.2229156 -0.86096835 -6.4198852
-2.3070078 -0.85215688 -6.4171414
-2.1981564 -0.85932112 -6.4106278
2.3970006 -0.8593204 -6.4106288
2.50633 -0.85149908 -6.4187431
-2.8962986 -0.83006978 -6.4149933
-2.8529034 -0.83110893 -6.4183111
-2.5269806 -0.83799601 -6.4130087
-2.4032588 -0.83126259 -6.4145975
-1.9953408 -0.83745944 -6.4181547
2.1942449 -0.83732247 -6.4181581
2.6022038 -0.83089972 -6.4147239
-1.8686924 -0.82731068 -6.4181185
-1.2782109 -0.82663298 -6.4179373
1.4771572 -0.82678378 -6.4179778
2.0675361 -0.82730925 -6.4181194
-2.9044418 -0.80883527 -6.4199448
-1.9624875 -0.80633932 -6.4125175
-1.7901908 -0.80592465 -6.4128504
-1.014986 -0.80488348 -6.4167442
1.2139738 -0.80505943 -6.4166045
1.9887161 -0.80629051 -6.4130406
2.1611156 -0.80611694 -6.4125886
-1.5063417 -0.79794252 -6.4166203
-0.67557633 -0.79197812 -6.4151697
-0.1530644 -0.79395461 -6.4124146
0.35169947 -0.79408431 -6.4121618
0.87449855 -0.79202235 -6.4150829
1.7051861 -0.79794264 -6.4166198
-2.6862192 -0.7838881 -6.4112272
-1.7471801 -0.78946388 -6.418921
1.9466927 -0.78982437 -6.4182215
2.344775 -0.78175491 -6.4101601
2.8850124 -0.78375053 -6.4110374
-2.0999873 -0.77583563 -6.4137087
2.2996926 -0.77630758 -6.4139109
-2.8785663 -0.76668125 -6.4132671
-3.0674665 -0.75791264 -6.4151583
-0.69355559 -0.96058202 -6.4057612
0.89237952 -0.96042788 -6.4057541
-3.0015373 -0.93822527 -6.4048185
-2.4761124 -0.93767285 -6.409873
2.6750128 -0.93781018 -6.4098759
-2.4711969 -0.92628527 -6.4024801
-1.0051942 -0.9299314 -6.4006853
1.2039539 -0.92978388 -6.4007211
2.6699147 -0.92654324 -6.4025688
-2.5482113 -0.91361964 -6.4070249
-2.2973139 -0.91478729 -6.4059043
-1.2981291 -0.9152 -6.4049735
-0.37241459 -0.91062474 -6.4053745
0.57119477 -0.91078115 -6.4052358
1.4969733 -0.9152 -6.404973
2.4960065 -0.91458273 -6.4058394
2.7469628 -0.91350722 -6.4070358
-1.0016633 -0.90518355 -6.4008646
-0.24102825 -0.9053874 -6.4041204
0.43987471 -0.90538645 -6.4041204
1.200384 -0.90530622 -6.4008532
-2.1616707 -0.89291471 -6.4098926
-1.4223913 -0.89947319 -6.4022598
1.6215322 -0.89902735 -6.4016123
-1.5756134 -0.88828182 -6.4065952
-0.49496436 -0.88466108 -6.4044151
0.69393623 -0.88458282 -6.4043741
1.7746938 -0.88814318 -6.4064794
-2.72244 -0.87708688 -6.4052649
-2.4408479 -0.87040687 -6.4091592
-1.020246 -0.87014866 -6.4050379
0.29853088 -0.87363911 -6.4096098
1.2186038 -0.87043715 -6.4047356
2.6398554 -0.87036514 -6.4091196
-1.4201019 -0.86083305 -6.4082665
-0.70401406 -0.86066401 -6.4098148
0.90285826 -0.86066449 -6.4098148
1.6189464 -0.86083215 -6.4082656
-0.80770564 -0.84559733 -6.4066324
1.0068781 -0.8454029 -6.4072738
-2.6693556 -0.83210492 -6.4080672
-1.1294861 -0.830194 -6.40446
1.3284522 -0.82982683 -6.4045887
-2.6754689 -0.81176013 -6.406301
-1.9262795 -0.81565762 -6.4070854
-1.8107312 -0.81295967 -6.4000988
-0.64933342 -0.81620383 -6.4016471
0.84817725 -0.81620383 -6.4016471
2.0095761 -0.81295991 -6.4000998
2.1250904 -0.815557 -6.4071589
-2.4532611 -0.8074367 -6.4006701
-1.5757592 -0.80378008 -6.4040508
-0.48041782 -0.80668592 -6.4023461
-0.065650582 -0.80990267 -6.4045877
0.26449358 -0.809901 -6.4045897
0.67950296 -0.80692852 -6.4023719
1.7748277 -0.80404544 -6.4038405
-2.7322369 -0.79338312 -6.4092803
-2.6117706 -0.79326129 -6.4061575
-2.0830374 -0.79837477 -6.4058657
-1.8245065 -0.79660761 -6.4023089
-1.6230147 -0.79933715 -6.4038301
-1.1378545 -0.79618895 -6.4091139
1.3361883 -0.79652774 -6.4084558
1.8221172 -0.7997117 -6.4032774
2.0233514 -0.79660749 -6.4023085
2.2815907 -0.79858255 -6.4054627
-2.1464438 -0.78140861 -6.40979
-0.81589878 -0.78865564 -6.4030318
-0.38214523 -0.78496265 -6.4012699
0.5810557 -0.78523612 -6.4016476
1.0160222 -0.78838676 -6.4038982
3.1009238 -0.78493702 -6.4031911
-2.378058 -0.77133125 -6.4097285
2.5770617 -0.77137077 -6.4096909
0.77313429 -0.76000059 -6.4075251
-0.57386869 -0.75974476 -6.4070425
-1.8892834 -0.96103668 -6.394278
-0.45171309 -0.9601326 -6.3954697
0.65055585 -0.96013379 -6.3954692
2.0881276 -0.96103573 -6.394279
-1.7021548 -0.95951682 -6.3960934
1.9009987 -0.95951837 -6.3960938
-1.8823974 -0.93046117 -6.39991
2.0812416 -0.93046117 -6.3999104
2.286257 -0.93023646 -6.3973465
-2.0872817 -0.92992836 -6.3975101
-0.84607661 -0.92686296 -6.3995895
1.0450087 -0.92670393 -6.3996749
-1.0308797 -0.91643262 -6.394053
-0.024705827 -0.91592216 -6.3995457
0.22352779 -0.91602325 -6.3996191
1.2297399 -0.91653299 -6.3941259
-2.5628462 -0.90875769 -6.39328
-1.255775 -0.90455192 -6.3994985
-1.0877528 -0.90218616 -6.3983889
-0.78930825 -0.90460801 -6.3914127
0.98822206 -0.90451932 -6.3913436
1.2864302 -0.90181589 -6.3978505
1.4547305 -0.90467763 -6.3994331
2.7761066 -0.90428609 -6.3913698
-2.8371301 -0.89846349 -6.3985987
-2.673768 -0.8967154 -6.39394
-1.2561822 -0.89338863 -6.3919811
-1.0719552 -0.89629817 -6.3952975
1.2711773 -0.89655447 -6.3955145
1.4553285 -0.89377189 -6.391614
2.8730297 -0.89708853 -6.3956981
-2.2212641 -0.88162345 -6.3944201
-1.9570493 -0.88325822 -6.3913627
2.1560457 -0.88317126 -6.3913469
2.4197264 -0.88136011 -6.3946981
-1.6644536 -0.86091959 -6.3922954
-0.43733692 -0.86051285 -6.3995838
0.63618135 -0.86051369 -6.3995833
1.8632983 -0.86091846 -6.3922963
-2.9915287 -0.85396481 -6.3926706
-2.6295376 -0.85612226 -6.398654
-2.0659168 -0.85605288 -6.3968053
-1.9344766 -0.85941339 -6.394032
-1.4991088 -0.85598302 -6.3949461
-0.92910576 -0.85573936 -6.3929873
-0.35587096 -0.8554945 -6.3910189
0.55471349 -0.85549378 -6.3910174
1.1279726 -0.85556567 -6.3928981
1.697953 -0.85598326 -6.3949461
2.133321 -0.85941386 -6.394031
2.2647469 -0.85622513 -6.3968935
-1.8264387 -0.8261559 -6.3978295
-1.1803726 -0.8291871 -6.3955617
-0.81225157 -0.82955736 -6.3966365
0.01367116 -0.82896674 -6.3940401
0.18517435 -0.82896709 -6.3940401
1.0109276 -0.82984567 -6.3967113
1.3791457 -0.82934123 -6.3956442
2.0251875 -0.82599378 -6.3977423
-2.6906204 -0.81433368 -6.3901243
-2.5873237 -0.81114316 -6.3946986
-1.6491317 -0.81737089 -6.3909392
-1.4853557 -0.81349695 -6.3971748
-0.40977162 -0.8167417 -6.3962898
0.60861617 -0.81674314 -6.3962884
1.6842009 -0.81349671 -6.3971748
1.8480133 -0.81707668 -6.3911543
2.7863135 -0.81089711 -6.3948946
-2.1480546 -0.80292058 -6.3908906
-0.88797855 -0.8020649 -6.3999248
1.0866795 -0.80236864 -6.3994761
2.3468204 -0.80283129 -6.3909616
-1.5760691 -0.79473424 -6.3957777
0.074819207 -0.79341358 -6.392055
0.12381876 -0.79354393 -6.3919415
1.7750105 -0.79460871 -6.3956547
-2.515703 -0.7860148 -6.3989716
-1.6762604 -0.78615069 -6.3917027
-0.57469499 -0.7814697 -6.390111
0.7733832 -0.78137892 -6.3900723
1.875088 -0.78628516 -6.3918877
2.7148194 -0.7862854 -6.3992333
-2.7899933 -0.77851069 -6.3963513
-0.97450614 -0.77216697 -6.391737
-0.28678191 -0.77177036 -6.3985591
0.48579085 -0.77181518 -6.3985701
1.1729704 -0.7716949 -6.3910046
-0.19317213 -0.75510955 -6.3990626
0.39206225 -0.75501966 -6.3988385
-2.7560413 -0.73556674 -6.39044
2.9560943 -0.73577785 -6.3917809
-2.5192909 -0.96101594 -6.382103
2.7181256 -0.96086359 -6.3820949
-1.8164599 -0.95999396 -6.385036
2.0153043 -0.95999277 -6.3850355
-3.1111887 -0.93252861 -6.380898
-0.78300017 -0.92723417 -6.3886366
-0.58583689 -0.92920494 -6.3893795
0.78463793 -0.92908049 -6.3893366
0.98204094 -0.92693347 -6.3887153
-2.2660918 -0.91522062 -6.3887343
2.4649262 -0.9151212 -6.3886623
-1.9388084 -0.9061743 -6.3872609
-1.3425307 -0.90467751 -6.3805075
-0.62236607 -0.90830529 -6.3841338
0.82111382 -0.90841424 -6.3841686
1.5415034 -0.9045518 -6.3805203
2.1374414 -0.90592784 -6.3873878
-2.6912441 -0.89895725 -6.380126
-0.70919299 -0.89224738 -6.3888135
0.90816104 -0.89218259 -6.3885088
2.8905139 -0.89925694 -6.3801804
-2.5245233 -0.86101723 -6.3861828
-1.798048 -0.86004353 -6.3892107
1.9968934 -0.86004353 -6.3892117
2.7233579 -0.86117017 -6.3861742
-2.3611526 -0.8549552 -6.381362
-1.7713037 -0.85520399 -6.3833876
-1.1848317 -0.85545325 -6.3854017
-0.60164261 -0.85535133 -6.3872247
-0.5334118 -0.85968518 -6.3865876
-0.021814823 -0.85542262 -6.3891268
0.22065878 -0.8554219 -6.3891268
0.73267853 -0.85942256 -6.3870735
0.8004868 -0.85534942 -6.3872242
1.3836392 -0.85527611 -6.3853111
1.9701078 -0.85502768 -6.383297
2.559998 -0.85495472 -6.3813615
-1.3439724 -0.8278265 -6.3832369
-0.9816829 -0.82712531 -6.38445
1.1807263 -0.82742482 -6.3845296
1.5427607 -0.82770026 -6.3832803
-2.0985036 -0.81025147 -6.3825645
-0.072755337 -0.81123877 -6.3882303
0.27160001 -0.81123805 -6.3882294
2.2973485 -0.81025171 -6.3825641
-2.5290463 -0.80113339 -6.3821039
-0.81168717 -0.80604696 -6.3823838
1.0106541 -0.80616856 -6.3823972
2.7284756 -0.80071032 -6.3824677
-0.58196604 -0.79239535 -6.3872833
0.78068411 -0.79247463 -6.3872695
-0.08856158 -0.76356834 -6.3836789
0.28792536 -0.76371062 -6.383882
-2.9838574 -0.755539 -6.3897676
-2.5997498 -0.75237656 -6.3827686
2.7988048 -0.75265145 -6.3834529
-2.1319401 -0.96114439 -6.3783798
-1.2025665 -0.96072948 -6.3717442
1.4014102 -0.96073091 -6.3717451
2.3307478 -0.96098173 -6.3784151
-1.4403481 -0.9596343 -6.3795733
1.639254 -0.95946401 -6.3796115
-0.55393708 -0.92816186 -6.3785949
-0.3689338 -0.92836475 -6.3738785
0.56770015 -0.92820799 -6.373961
0.75288713 -0.92790842 -6.3785076
-2.8028378 -0.91075635 -6.371048
-2.6447251 -0.91532874 -6.3712721
-2.1406951 -0.91299927 -6.3746395
-0.97985625 -0.91190243 -6.3774338
1.1788698 -0.91211319 -6.3774996
2.3395834 -0.91315114 -6.3745041
2.8434236 -0.9151268 -6.3712077
3.0017772 -0.91092181 -6.3711782
-2.6001911 -0.90762353 -6.3754721
-2.4802027 -0.90345955 -6.3707132
-1.3486016 -0.90372372 -6.3783808
0.045434237 -0.90081692 -6.3737688
0.15341055 -0.90081692 -6.3737688
1.5475929 -0.90354466 -6.3782406
2.6789408 -0.90315318 -6.3702674
2.7987354 -0.90726036 -6.375658
-2.8216233 -0.89207387 -6.3739514
2.9356489 -0.89802647 -6.3769979
-2.1016405 -0.88369846 -6.3730078
-0.71076351 -0.88583523 -6.3790116
0.91003114 -0.88610029 -6.3788996
2.3004389 -0.88383842 -6.372817
-1.0433011 -0.87518764 -6.3738866
-0.34091729 -0.87518454 -6.3701396
0.53945237 -0.87509513 -6.370162
1.2418333 -0.87472248 -6.3745966
-2.7475111 -0.86529481 -6.3755107
-1.9075935 -0.86100447 -6.3764043
-1.2115597 -0.86071539 -6.3758831
1.4104038 -0.8607145 -6.3758831
2.1063998 -0.86116725 -6.3764424
2.9477661 -0.86422229 -6.3775787
-2.9544566 -0.85488009 -6.3794146
-2.6980667 -0.85435033 -6.3704805
-1.6721556 -0.85950601 -6.3775239
1.8710003 -0.85950685 -6.3775239
3.1532998 -0.85487938 -6.3794146
-2.9244297 -0.83239341 -6.3770175
-2.5014787 -0.83070016 -6.3709054
-1.6183151 -0.83031058 -6.3710575
1.8171978 -0.83018756 -6.3711014
-0.37890482 -0.82748318 -6.3718204
0.57783389 -0.82764292 -6.3719063
2.9454098 -0.82639027 -6.3721633
3.324234 -0.82450783 -6.3713412
-2.4110558 -0.81369042 -6.3716745
2.6097119 -0.81391394 -6.3716979
-2.2807941 -0.80334425 -6.3723612
-2.2403314 -0.80960512 -6.376018
-1.6004859 -0.80934358 -6.3701997
-1.543524 -0.80700958 -6.3744826
-0.15495434 -0.80075073 -6.3753662
0.35386845 -0.80087376 -6.3751841
1.7421582 -0.80678916 -6.3745518
1.799439 -0.80917597 -6.3703337
2.4390993 -0.80944777 -6.3758769
2.479506 -0.8037045 -6.3718276
2.9307697 -0.80195522 -6.3775315
-2.8554699 -0.79208797 -6.3745484
-2.578311 -0.7969951 -6.3717513
-2.3870442 -0.79699498 -6.3717518
-2.1957781 -0.79699522 -6.3717508
-2.0044918 -0.79691643 -6.3719535
-1.813235 -0.79695541 -6.3718534
-1.6220189 -0.79719275 -6.371244
-1.4307687 -0.79731113 -6.3709402
-1.2394949 -0.7973116 -6.3709383
-1.048216 -0.79727179 -6.3710408
-0.8569296 -0.79715341 -6.3713446
-0.66565877 -0.79715341 -6.3713446
-0.47438866 -0.79715317 -6.3713455
-0.30010346 -0.79308969 -6.3703628
-0.28311926 -0.79719251 -6.3712444
-0.09185081 -0.79723281 -6.371141
0.099422164 -0.79727226 -6.3710394
0.29069465 -0.79727238 -6.3710389
0.48196906 -0.79727167 -6.3710413
0.49847895 -0.79284328 -6.3715825
0.67324144 -0.79727179 -6.3710408
0.86451393 -0.79727203 -6.3710399
1.0557826 -0.79723233 -6.3711424
1.2470446 -0.79715341 -6.3713446
1.438295 -0.79703456 -6.3716502
1.6295706 -0.79707378 -6.3715496
1.8208461 -0.79711396 -6.3714461
2.0121078 -0.79707414 -6.3715482
2.2033365 -0.79691619 -6.371954
2.3946326 -0.79703504 -6.3716488
2.5859482 -0.79719275 -6.371244
2.7772698 -0.7973507 -6.3708382
2.9685307 -0.7973116 -6.3709383
3.1261199 -0.79518938 -6.3727527
-2.6482496 -0.78323472 -6.3708806
-0.84736001 -0.78952837 -6.3707647
-0.56361425 -0.78792149 -6.3710132
0.76300794 -0.78824782 -6.370955
1.0459645 -0.78926682 -6.3705125
-0.49300343 -0.77245462 -6.379014
0.6918481 -0.77245533 -6.3790159
-1.0523913 -0.76512122 -6.3700595
-2.3733606 -0.96109051 -6.3625951
0.064596176 -0.96028459 -6.3612194
0.13424873 -0.96028483 -6.3612199
2.5722046 -0.96108907 -6.3625951
-1.1798881 -0.95975006 -6.3631387
1.378792 -0.9595809 -6.3631773
-2.3649137 -0.93058658 -6.3665147
-1.2776157 -0.93017536 -6.3686032
1.4763793 -0.93003142 -6.3686385
2.5638266 -0.93083048 -6.3665991
-1.936898 -0.92682528 -6.3673644
2.1357412 -0.92682672 -6.3673649
-2.3875918 -0.91456866 -6.3681059
-1.9782699 -0.91258609 -6.3697734
-1.0963136 -0.9153018 -6.3629169
-0.063236237 -0.91122985 -6.3622522
0.26207924 -0.91122794 -6.3622532
1.2951593 -0.91530108 -6.362916
2.1769185 -0.91235697 -6.3697944
2.5863662 -0.91477299 -6.3682537
-1.919252 -0.9027307 -6.3650146
2.1180973 -0.9027307 -6.3650155
-2.7085776 -0.89646393 -6.36552
-2.5855286 -0.89697623 -6.3697138
-2.3937457 -0.89697623 -6.3697138
-2.2019634 -0.89697623 -6.3697138
-2.1234996 -0.8990624 -6.3609929
-2.0101717 -0.89701676 -6.3698153
-1.8183903 -0.897017 -6.3698163
-1.626657 -0.89677322 -6.369205
-1.5119076 -0.89529765 -6.364625
-1.4348928 -0.89665115 -6.3688989
-1.2431036 -0.89665139 -6.3688993
-1.051314 -0.89665139 -6.3688993
-0.85950714 -0.89681351 -6.3693056
-0.66772085 -0.89681351 -6.3693056
-0.47593719 -0.89677322 -6.369205
-0.35689491 -0.89176846 -6.3695607
-0.2841509 -0.89677322 -6.369205
-0.092365079 -0.89673245 -6.3691034
0.099421687 -0.89669204 -6.3690009
0.29121059 -0.89669204 -6.3690014
0.48299962 -0.89669251 -6.3690019
0.55573934 -0.89176822 -6.3695598
0.67478985 -0.89665139 -6.3688998
0.86657566 -0.89669204 -6.3690004
1.05836 -0.89673293 -6.3691044
1.2501361 -0.89681375 -6.369307
1.4419038 -0.89693558 -6.3696122
1.6336932 -0.89689505 -6.3695107
1.7105193 -0.89514256 -6.3645964
1.825485 -0.89685392 -6.3694067
2.0172527 -0.89693558 -6.3696122
2.2090051 -0.89705706 -6.369916
2.3225174 -0.89918685 -6.3610983
2.4008303 -0.89689553 -6.3695121
2.5926609 -0.89673293 -6.3691039
2.7844989 -0.89657021 -6.3686957
2.9762762 -0.89661086 -6.3687968
3.1680508 -0.89665091 -6.3688984
-1.2127975 -0.88794458 -6.3666234
-0.0005068779 -0.88487244 -6.3636189
0.19932169 -0.88473487 -6.3638058
1.4115179 -0.88807702 -6.3664985
-2.3971014 -0.87468982 -6.364531
-0.41774327 -0.87220907 -6.362289
0.6167416 -0.8721149 -6.3623886
2.5969524 -0.87500507 -6.3640952
-2.149493 -0.86125255 -6.3606315
0.077489376 -0.86040801 -6.3654284
0.1213553 -0.86040813 -6.3654289
2.3483739 -0.86109048 -6.3605943
-2.2671769 -0.85407335 -6.3670406
-1.4111834 -0.85959864 -6.3611007
1.6100273 -0.85959744 -6.3610997
2.4658201 -0.85412663 -6.3669672
-1.0854676 -0.83001423 -6.3645968
1.28423 -0.83015728 -6.3646321
2.8755918 -0.83225489 -6.3611054
-3.1039424 -0.82704329 -6.3675199
-0.31839263 -0.82933855 -6.3600731
0.51719141 -0.82946277 -6.3600302
-1.8441565 -0.8140595 -6.3621769
-1.7246506 -0.81555748 -6.3650675
-0.12268806 -0.8104105 -6.3681688
0.32144296 -0.81051564 -6.3681345
1.9234951 -0.81555724 -6.3650684
2.042922 -0.81416273 -6.3621435
3.054558 -0.81005704 -6.3643613
-1.1483043 -0.80539644 -6.3620992
1.3471487 -0.80539596 -6.3621006
-3.0048139 -0.79738611 -6.3693676
-1.6057861 -0.78839207 -6.3652334
-0.62938017 -0.78630257 -6.3682671
0.82878894 -0.78595555 -6.3681192
1.8048651 -0.78852814 -6.3651152
1.2516052 -0.76487601 -6.3695974
-0.79517573 -0.74541128 -6.3674359
0.99434924 -0.74559891 -6.3680744
-1.2926958 -0.96014547 -6.3505497
1.4915738 -0.95998824 -6.3505411
-2.1369328 -0.93277794 -6.3523917
2.3357773 -0.93277901 -6.3523927
2.960324 -0.93197423 -6.3574009
-1.0828938 -0.92933869 -6.3555088
-0.49028674 -0.92765224 -6.3554144
0.6892271 -0.92750263 -6.3554521
1.2818611 -0.92971015 -6.3556376
-1.6865673 -0.9117111 -6.3507576
-1.2296634 -0.91643262 -6.3525496
0.023255289 -0.9160223 -6.3578033
0.17556632 -0.91592121 -6.3577299
1.4285386 -0.91663337 -6.352695
1.8852103 -0.91148019 -6.3507819
-2.5016165 -0.90162623 -6.3513055
-2.3154101 -0.90990353 -6.3586121
-2.145668 -0.90509498 -6.3527927
-1.689249 -0.90391004 -6.3598418
1.8882238 -0.90378463 -6.3598552
2.3445134 -0.90509498 -6.3527946
2.5143042 -0.90998602 -6.358676
2.7003789 -0.90171778 -6.3513775
-2.0042517 -0.89047092 -6.3583045
2.2027113 -0.89021653 -6.3584113
-2.7230265 -0.8832581 -6.3555708
-2.254729 -0.88602281 -6.3544207
2.4535866 -0.88616061 -6.3542328
-2.5502276 -0.87641776 -6.3577638
2.7470133 -0.87680554 -6.358952
2.9540713 -0.87091887 -6.3545465
-1.2758355 -0.86009675 -6.3548136
-1.0955131 -0.86486781 -6.35045
1.4746788 -0.86009675 -6.3548131
-0.21040866 -0.8550694 -6.3560662
0.409302 -0.85516143 -6.3558431
-2.3917341 -0.84540248 -6.3562865
2.5909665 -0.84530222 -6.3565583
-2.0564985 -0.8330301 -6.3560801
-1.4476852 -0.8335011 -6.3511567
1.6466135 -0.83364701 -6.3511534
2.2553427 -0.83303046 -6.3560791
-0.68812901 -0.82746208 -6.3512702
0.8870703 -0.82761055 -6.3513088
-2.4126558 -0.81366813 -6.3583016
-2.1273494 -0.81303519 -6.3529544
-0.6083706 -0.81674147 -6.354825
-0.44924492 -0.81620312 -6.3598719
0.64809006 -0.81620359 -6.3598714
0.8072142 -0.8167429 -6.3548231
2.3261926 -0.8130362 -6.3529549
2.6115403 -0.81351662 -6.3581657
3.1485424 -0.8128103 -6.3566604
-1.0931234 -0.80824959 -6.3577352
1.2916824 -0.80867136 -6.3573999
-2.1021118 -0.79692852 -6.3598156
-1.4311426 -0.79927421 -6.3503108
-1.0389085 -0.79656124 -6.3570147
1.2381313 -0.79630852 -6.357234
2.3009562 -0.79692852 -6.3598166
-2.9629602 -0.78375101 -6.3532467
-2.0231431 -0.78323478 -6.353322
2.2221384 -0.783319 -6.3533072
-0.37691137 -0.77519637 -6.3535814
-0.0030001402 -0.77346611 -6.3551145
0.2020185 -0.77369857 -6.3554745
0.57560128 -0.77523977 -6.3535924
-2.988857 -0.75488162 -6.3559761
-0.47762516 -0.73725963 -6.3501997
-3.0186598 -0.96116209 -6.3484845
-2.613625 -0.96119744 -6.3468509
2.8125029 -0.96135819 -6.3468137
3.2174964 -0.9610095 -6.3484764
-0.92076397 -0.9598648 -6.3467889
1.1196663 -0.95969534 -6.3468275
-1.5243132 -0.93327433 -6.3474693
-0.92302477 -0.93390715 -6.3426433
1.1218706 -0.9339062 -6.3426447
1.7231579 -0.93327504 -6.3474712
-1.7265458 -0.92949861 -6.3493495
-1.239941 -0.92639637 -6.3491898
-0.041550636 -0.92855477 -6.3443222
0.24049366 -0.928303 -6.3442354
1.4387846 -0.92639792 -6.3491888
1.9253907 -0.92949921 -6.34935
2.8042207 -0.92478371 -6.3412714
-2.4641447 -0.91733313 -6.3477325
-1.3483846 -0.91248345 -6.3419437
1.5473933 -0.91269207 -6.3420095
2.6629882 -0.9173336 -6.3477335
-1.9004213 -0.9093883 -6.3493562
-1.8189021 -0.90920258 -6.3460736
-1.2747685 -0.90231085 -6.3463192
-0.2241677 -0.90904844 -6.3471832
0.42291605 -0.9091562 -6.3472161
1.4735322 -0.90212512 -6.3460493
2.0178537 -0.90937352 -6.3462081
2.0992684 -0.90938735 -6.3493557
-1.2302284 -0.89947271 -6.3485537
-0.23791462 -0.89102316 -6.347826
0.43701494 -0.89118409 -6.3478551
1.4293207 -0.89909077 -6.3479977
2.9655871 -0.89521086 -6.3440728
3.051584 -0.89700568 -6.3448758
-2.1407738 -0.88659513 -6.3411822
-2.0547161 -0.88882864 -6.3486409
-0.72212785 -0.88787252 -6.3454251
0.92206711 -0.88811392 -6.3461685
2.2544894 -0.88911462 -6.3489051
2.3403535 -0.88617301 -6.3408256
-2.3902364 -0.86133623 -6.3448977
-1.7165582 -0.86076558 -6.342123
1.2948499 -0.86520302 -6.3498316
1.9154025 -0.86076534 -6.342123
2.5891159 -0.861175 -6.344861
-1.151549 -0.85969031 -6.3447599
1.3504523 -0.85985863 -6.3448
2.8488841 -0.85978007 -6.3440347
-2.8291392 -0.84221745 -6.3460846
-2.5363019 -0.84215498 -6.3463316
-2.243427 -0.84221721 -6.3460855
-1.9505405 -0.84234226 -6.3455901
-1.6576381 -0.84259176 -6.3446016
-1.3648267 -0.84240437 -6.3453441
-1.0719926 -0.84228003 -6.3458371
-0.77915865 -0.84209251 -6.3465796
-0.48627788 -0.84240484 -6.3453426
-0.19342071 -0.84265447 -6.3443532
0.099422403 -0.84246683 -6.3450966
0.39227813 -0.84221745 -6.3460846
0.68512934 -0.84228027 -6.3458362
0.97797722 -0.84234226 -6.3455901
1.2708294 -0.84234226 -6.3455901
1.5636287 -0.84265399 -6.3443546
1.85647 -0.84265494 -6.3443518
2.1492813 -0.84277952 -6.3438582
2.442102 -0.84284174 -6.3436112
2.7349548 -0.84277928 -6.3438587
-1.3869975 -0.83610344 -6.3407788
-0.85032678 -0.83425164 -6.3463178
-0.26393843 -0.83499014 -6.3415675
0.4626317 -0.83470368 -6.3415766
1.0493314 -0.83454084 -6.3463101
1.5861813 -0.83593601 -6.3420219
-2.2291241 -0.82552838 -6.3467484
-0.82482231 -0.82808447 -6.3488207
-0.81170857 -0.82891512 -6.3469377
1.0105528 -0.82891619 -6.3469386
1.0237207 -0.82821071 -6.3487763
2.4279685 -0.82552981 -6.3467493
-1.8462645 -0.81737041 -6.3497806
-0.35622323 -0.8116641 -6.3454046
0.55495477 -0.81197381 -6.3456807
2.04512 -0.81727314 -6.3498516
-1.4901447 -0.80448812 -6.3414607
-1.0746526 -0.80200362 -6.3478527
-0.57574081 -0.80755985 -6.3446941
0.77446473 -0.80773175 -6.3445559
1.2733016 -0.80242968 -6.3472219
1.688988 -0.80448717 -6.3414602
2.8142824 -0.8069129 -6.3458204
-2.6266387 -0.79916918 -6.3472519
-1.923804 -0.79059416 -6.3480477
-1.3054247 -0.7986083 -6.3473268
-0.52628708 -0.79271162 -6.3440547
0.72523773 -0.7925843 -6.3439322
1.5044038 -0.79873884 -6.347394
1.6302826 -0.79971218 -6.3496628
2.122391 -0.79076141 -6.3481178
-2.0923247 -0.78921747 -6.3493786
-0.65606368 -0.78482652 -6.343884
0.8549431 -0.78496313 -6.3440723
2.2916281 -0.7890802 -6.3495083
0.6754359 -0.73673582 -6.3460083
-2.8527055 -0.96130419 -6.3311849
-1.7090147 -0.96087873 -6.3378987
1.9078445 -0.96072388 -6.3378906
-2.6710162 -0.95984399 -6.3397059
-0.6629653 -0.95997906 -6.3305225
0.86186576 -0.95981097 -6.3305593
2.8698621 -0.95984399 -6.3397064
-2.8425224 -0.93107533 -6.3335938
-1.5474072 -0.93056458 -6.336803
-0.33284342 -0.93452585 -6.3379068
-0.047696114 -0.93513429 -6.3332558
0.24654067 -0.93513477 -6.3332558
0.53161085 -0.93467069 -6.3379102
1.7461712 -0.93041915 -6.3368392
3.0413671 -0.93107343 -6.3335924
-1.4084545 -0.92736244 -6.3326354
1.6073568 -0.92723346 -6.3325901
-2.986851 -0.91576195 -6.3371291
-2.7409647 -0.9134199 -6.3329754
-1.3906366 -0.91105521 -6.3314347
1.5893778 -0.91093898 -6.3314466
-2.0419745 -0.90287614 -6.3388577
-1.3128452 -0.90831947 -6.3331647
1.5116348 -0.90823507 -6.3330975
2.2408202 -0.90287471 -6.3388586
3.2946525 -0.90068305 -6.3374572
-1.9434974 -0.89715368 -6.3316269
-0.59071296 -0.89491987 -6.3346071
-0.52278274 -0.89226931 -6.3363042
-0.18907738 -0.89171612 -6.3392487
0.38770199 -0.89145589 -6.3394971
0.72154582 -0.89231259 -6.3365088
0.78916341 -0.89465904 -6.3343854
2.1424832 -0.89701909 -6.3316951
-2.7814152 -0.88469338 -6.3389187
-1.9627001 -0.87658358 -6.3392496
-1.9062649 -0.87017345 -6.330925
-1.4939442 -0.87797493 -6.3325801
1.6931201 -0.87778604 -6.3326602
2.1052136 -0.87005115 -6.331111
2.1616859 -0.8768152 -6.3388958
-0.39084005 -0.86045963 -6.3314381
0.58966172 -0.86061412 -6.33143
-2.5898073 -0.85187411 -6.338851
2.788862 -0.85159183 -6.3395367
-2.1019282 -0.83078766 -6.3378778
-1.3559661 -0.83046597 -6.3328729
-0.67841482 -0.83614254 -6.3323317
-0.11300957 -0.83557242 -6.3369079
0.31185436 -0.835572 -6.3369074
0.87725925 -0.83614326 -6.3323307
1.5547296 -0.83060968 -6.3329091
2.300842 -0.83054638 -6.3379622
2.9048855 -0.83832395 -6.3308153
-2.2113085 -0.82704496 -6.3371058
2.4101534 -0.82704484 -6.3371067
3.0080876 -0.82487249 -6.3369837
-1.8395044 -0.81225878 -6.3339415
-0.50346601 -0.8112272 -6.3322239
0.70231044 -0.8112272 -6.3322239
1.7839793 -0.8102107 -6.3325467
2.03825 -0.81237227 -6.3339524
-1.5849905 -0.80989575 -6.3322659
-1.1316767 -0.80788743 -6.3370047
-0.53627682 -0.80074573 -6.3355265
-0.048262298 -0.80694401 -6.3313289
0.24723411 -0.80677116 -6.3314672
0.73499292 -0.80061626 -6.3354592
1.3302152 -0.80755854 -6.3371105
-1.4467115 -0.79508686 -6.3305149
1.6452067 -0.79531562 -6.3304729
-1.4051061 -0.78601336 -6.3348961
-0.54900211 -0.78315556 -6.3362918
0.74818248 -0.78322089 -6.3360806
1.6039507 -0.7860136 -6.3348966
-2.4260974 -0.77558738 -6.3357534
0.091481805 -0.77409911 -6.3371077
0.10796392 -0.77446592 -6.3374982
2.6256573 -0.77537006 -6.3354459
-2.7446713 -0.7697885 -6.3351817
-2.7966506 -0.75791168 -6.3394709
-2.2134326 -0.75483596 -6.3335638
2.4120765 -0.75478494 -6.3334918
-0.37946343 -0.96058798 -6.3271508
0.57828569 -0.96043432 -6.3271422
-2.9670954 -0.95621586 -6.3203993
-3.0315373 -0.93104076 -6.3255348
